# .PCD v0.7 - Point Cloud Data file format
VERSION 0.7
FIELDS x y z
SIZE 4 4 4
TYPE F F F
COUNT 1 1 1
WIDTH 200
HEIGHT 1
VIEWPOINT 0 0 0 1 0 0 0
POINTS 200
DATA ascii
6 16.799999 -10.277175
10 6.5999999 -4.3111496
6.5999999 11.4 -5.1661277
0.40000001 15 -6.2268043
10.4 8.8000002 -4.8369856
3.4000001 11.4 -5.0352755
13.6 9.6000004 -7.8091545
18 12.2 -9.3442745
19.200001 10.2 -10.529591
10.2 13.8 -9.3461819
5 12.2 -6.0879002
17.799999 5.1999998 -4.8493004
8.8000002 10.8 -6.4083343
10.8 4.4000001 -3.4020886
10.4 16.200001 -10.737269
16.200001 15.6 -11.434374
17.200001 17.200001 -13.182395
19.200001 3.5999999 -5.5296683
4.1999998 18 -9.4124804
4.1999998 18 -10.098005
0.60000002 17.4 -7.6857991
16.799999 17.6 -14.717728
13.2 4.5999999 -4.3790874
7.5999999 16.799999 -10.351236
17 11 -9.6612759
12.2 4.4000001 -3.3564284
0 14.6 -5.9496984
18 1.6 -3.6910868
17 18 -14.222162
7 7 -4.0077796
15.4 8.6000004 -6.1580181
8.8000002 15.2 -8.8706827
11.4 1 -1.7016733
3.2 1.6 1.8757885
9.1999998 16.6 -11.024632
16.6 12.2 -10.560993
11.2 7.1999998 -5.3254724
8.6000004 4.4000001 -1.9828207
14.4 14 -10.579565
2.4000001 11.4 -5.6412234
0.80000001 5.4000001 0.59353554
19.4 14.6 -11.372524
1 13.2 -4.7152019
16.799999 5 -4.6416445
19.799999 16.799999 -14.551512
19.200001 11.8 -10.277738
1.8 6.4000001 -0.78311044
17.200001 12 -9.7419281
16 3 -4.8479805
5 5 -1.1208267
17.200001 5.1999998 -5.8064904
16.799999 16.4 -12.639871
9.6000004 12 -7.6977739
6.1999998 15.6 -8.7966309
8.3999996 14 -9.5303841
9.6000004 3.2 -1.3548523
14.8 19.799999 -14.440751
6.8000002 14.4 -9.3800106
17.799999 18.6 -14.955109
17.799999 4.5999999 -6.4351773
17.799999 14.2 -11.888043
14.6 12 -9.4350424
2.5999999 17.6 -7.3158064
10.4 14 -8.1382341
10.6 19.200001 -13.349281
6.1999998 10.6 -6.1988306
1 9.1999998 -2.7333086
9.6000004 11.8 -7.8037586
12.8 1 -2.1055484
8.6000004 18.4 -11.753144
3.2 12 -5.0141253
1.2 9.8000002 -2.4415517
19 12.2 -11.555338
0.2 13.8 -5.4443135
17.4 12 -11.108154
18.799999 8.8000002 -9.0648346
19.200001 4.4000001 -5.7562327
15 4.8000002 -5.3336158
7.1999998 2 -0.93277752
15.6 11.6 -8.8718309
8.3999996 15.4 -9.5932217
5.1999998 4.4000001 -1.2283725
1.8 5.1999998 -0.043859284
16.200001 19.799999 -14.298559
12.8 13.4 -10.260986
10.4 8.3999996 -5.4604192
4.8000002 11.4 -5.2521129
15.8 12.8 -9.6418791
13.4 0.60000002 -1.3127229
1.8 7.8000002 -2.1471636
18.6 15.4 -12.981669
0.60000002 18.200001 -9.2662849
12.6 17 -12.843511
11 18.6 -12.550394
14.6 6.4000001 -5.0713854
9.1999998 11.6 -7.7174077
2.2 8.3999996 -3.387763
5.4000001 15.2 -8.5063391
11.6 0 -0.63623446
19.6 9.8000002 -9.1368818
3.4000001 4 -0.39105707
7.8000002 1.8 -1.4591327
7.1999998 15.8 -10.002078
11 0.40000001 0.17411755
12.6 0.60000002 -0.5552336
9.3999996 19.4 -12.317323
5 16 -8.2622662
16.799999 9.8000002 -8.6353617
0.60000002 11.8 -5.1167006
10.6 6 -3.2251589
12.2 19 -13.79357
17.6 3.2 -5.6501517
1.6 1.2 2.7416077
4 0.60000002 2.7771285
18.6 18.200001 -14.85731
18 8.8000002 -8.1258593
17.200001 11.4 -9.8889551
5.8000002 6 -2.2506688
7 12.4 -6.577601
8 16.4 -10.032343
18.6 4.5999999 -5.6536088
0.60000002 13.8 -4.5080466
18 13.6 -11.279675
19.6 18 -14.699983
14.8 2.8 -2.4344556
7 15.6 -9.6158934
19.6 2.5999999 -4.9401026
0.60000002 4 0.54804349
16.4 2.2 -3.6588845
9.1999998 17 -11.120677
12 0.60000002 -0.45055211
6.5999999 11 -4.9521794
10.8 8.6000004 -5.4737086
7.1999998 0 1.0229636
9.3999996 10.4 -7.246942
8 8.8000002 -5.7625308
12.4 9.1999998 -7.4184651
17.799999 10 -8.3270607
19.6 12.8 -11.046973
17 15.8 -12.223948
7.4000001 4.4000001 -1.6597832
17.4 11.2 -10.477377
5.1999998 2.8 0.87650901
8.3999996 8.8000002 -4.1566787
14.2 6 -4.3807073
12 4 -2.4822443
5 1.2 0.95420098
0 4 1.3771756
1.2 11.8 -3.7072139
0 14.2 -5.0299401
5.1999998 16.799999 -8.2069778
10.6 14.4 -8.7135983
19.799999 2.8 -4.5681677
13.6 16.799999 -12.009287
19 18.200001 -15.158128
16.6 16.799999 -11.700356
5 1.2 1.1104834
8.8000002 8.6000004 -5.0937924
12.2 13.4 -9.6414251
14.6 5.4000001 -5.9725714
6 5 -1.6404884
15.8 5.1999998 -5.7345572
9 14.4 -9.1797943
17 6.4000001 -7.0485253
16.6 12.2 -10.48455
1.2 9 -1.9428027
17.4 6.8000002 -5.8901968
16.799999 2.4000001 -4.4213901
11.8 2.5999999 -2.4773009
13.8 5.5999999 -4.4666634
1.8 8.6000004 -2.4926264
3.4000001 14.4 -7.2279549
15.2 2.2 -3.536052
4.4000001 11.6 -5.2538981
19.200001 13.8 -12.395916
5.8000002 12 -7.8750567
15.4 16.799999 -13.111974
15.6 7.8000002 -6.6182446
11 10.4 -6.6923866
16.799999 15 -11.369233
0.80000001 16.4 -8.3148565
15.8 3.4000001 -3.3384421
7.1999998 11.6 -6.799108
6.4000001 7.4000001 -3.1998985
16.6 15.2 -10.968367
2.2 7.1999998 -1.8742994
11.4 1 -0.25250718
6.1999998 15.8 -8.2640133
17.4 11.4 -9.5677176
4.8000002 7.4000001 -2.6674647
19.6 5.5999999 -8.167697
5 19 -11.048467
7.4000001 9.1999998 -4.5240898
0 17.6 -8.4936314
2.2 8 -2.2937443
19.4 10.2 -10.072526
7.8000002 10.8 -6.6267228
8.6000004 13.8 -8.7102623
9.8000002 19.799999 -12.602679
17.4 7.1999998 -6.7403774
