# This PCD file was generated using the MATLAB® pcwrite function
# from Computer Vision Toolbox®.
# .PCD v.7 - Point Cloud Data file format
VERSION .7
FIELDS x y z
SIZE 4 4 4
TYPE F F F
COUNT 1 1 1
WIDTH 883
HEIGHT 1
VIEWPOINT 0 0 0 1 0 0 0
POINTS 883
DATA ascii
0.294128596833910 0.347440708216933 0.625938903927036
0.282748285681826 0.350937362357228 0.600311874256766
0.278750236046604 0.354459099164559 0.592648503512076
0.273992271846202 0.361190307183143 0.585901423651643
0.269860292801808 0.362761755611428 0.574635008722065
0.369071480406645 0.300679640699006 0.689397951256496
0.358235510400988 0.304177741640769 0.681898957213259
0.359844897974701 0.299128991832422 0.674478649115214
0.347347247833356 0.307443802844100 0.673511655718121
0.350952798852470 0.300227701462185 0.664537260809409
0.337234685724151 0.312339277645426 0.666263151713226
0.339457180488329 0.304722089949580 0.654839364893263
0.329636822139003 0.313727361893583 0.655311931794580
0.322980833471994 0.334857818549488 0.668762816394305
0.316660015703515 0.336606149200827 0.659638040081510
0.306035350336041 0.353984240300520 0.653857946455788
0.311093418405329 0.340395071562452 0.653671717322258
0.322584030263399 0.324422218619412 0.658320011106422
0.332694450819937 0.322626623399319 0.672423138160087
0.320553487377172 0.321909661648023 0.651107791736367
0.323000164745076 0.314316102655362 0.642591531526211
0.334580306396967 0.305774953162523 0.592426426649099
0.247116151142086 0.439596940906347 0.462278612720757
0.245500310260834 0.431521332016607 0.462908995580237
0.243698970809170 0.418557439358580 0.461397739822934
0.245874910080562 0.423937091284887 0.454292626735823
0.244403749346124 0.391293088818926 0.476381302869027
0.242887472757983 0.401990108584574 0.473853225012582
0.244602863607580 0.392039430667362 0.467729086295167
0.250801906531696 0.375725648269454 0.475106556177463
0.247840260952121 0.383436691838759 0.479353534451424
0.243632360642568 0.419598119357180 0.485270021346243
0.243605150747630 0.411593439551296 0.479532773098651
0.245209517490506 0.390587601206005 0.516082609512199
0.244418066950751 0.395854116122457 0.507551924261663
0.245720904510424 0.384389288845006 0.506434549460484
0.242782185720451 0.406702255017690 0.503827778496463
0.255473922130031 0.363638417027749 0.489423888634630
0.315004079799399 0.342296677220811 0.428687019754619
0.267029002602036 0.439614832540345 0.575444186160996
0.264664706969213 0.433491710881388 0.575315220283594
0.264053748493800 0.445912730681606 0.561728379320166
0.264346682816796 0.451124789996264 0.553312664649661
0.248417549062675 0.418197164305864 0.531166281192551
0.246970031356188 0.408862437045369 0.530908356600130
0.251626296873194 0.425527856661486 0.545870933862551
0.249336482866446 0.419838066367002 0.541444280035969
0.245680795162793 0.396604003350729 0.522378108254987
0.248015739348009 0.384879912115142 0.522134615865330
0.254629484277101 0.371375932766490 0.535463976304114
0.251574004311219 0.376215569626006 0.525572416700359
0.277115787293004 0.350253376219591 0.583802630412990
0.274048131275163 0.353554511614949 0.577786471789306
0.279083294041999 0.342435613136053 0.576482867854598
0.267954382550962 0.359764305276708 0.569227373363402
0.303512035464627 0.313022583356630 0.575960028183454
0.299648645801694 0.315249354063761 0.562845754121343
0.303453303919881 0.312771190857966 0.560589581829922
0.297676834460212 0.316888114572231 0.547754647886914
0.302048760514428 0.315630385703876 0.541537398183926
0.295846852636909 0.324205907475159 0.594123911539933
0.285360406946327 0.335005356487320 0.583817055453370
0.294672937980338 0.321074527731267 0.574047464078332
0.290972850661333 0.326194922861821 0.579706033543113
0.282743272013372 0.334672298491925 0.572607910942303
0.314162499737488 0.309095434155730 0.604237103938887
0.317142760351794 0.306423148869782 0.597719091427730
0.315008384391886 0.311799255416253 0.617007776977082
0.263957765392441 0.360731921801167 0.560460623114903
0.260000548505584 0.364773661975774 0.552660866263499
0.269259361663303 0.350293485567223 0.555196371511639
0.259516371380604 0.365063738507751 0.546551152586464
0.266394415423437 0.354114595680322 0.548957706281969
0.258588849879010 0.362432980721369 0.541530400535241
0.259416821412260 0.358684196356910 0.536380689768999
0.267908550458910 0.348985620014329 0.545748972796217
0.255908693133589 0.389610666420605 0.565445527436680
0.252775150349879 0.394797643068227 0.557703033841404
0.254733338837933 0.383437400914726 0.558655602198117
0.328788079693586 0.301962423584863 0.616821547843552
0.326593525387464 0.303874765656098 0.622236180850901
0.341489864927225 0.298779453192581 0.617766681646188
0.246455055982134 0.430163358428708 0.512486992719009
0.245173712735362 0.424485729861417 0.506527660446058
0.248897428757551 0.436016458229503 0.519448722050722
0.245807576513226 0.425741295689953 0.519054841094596
0.244499725285099 0.388605776852383 0.495777094701321
0.246746557828429 0.383893630419267 0.501091611912029
0.248373865685674 0.376030787293945 0.494967917262391
0.252201436268695 0.369268781026286 0.503347784203450
0.431887660842174 0.361996096814677 0.277167018727056
0.419112690373875 0.361610037181340 0.284042627559497
0.431076807405502 0.361617192402462 0.268843985299114
0.421049685369135 0.361981048646931 0.273084409992166
0.427533433037600 0.361543427014738 0.258078987351614
0.434399222242255 0.362220279418403 0.259289480300748
0.409136851003408 0.361549164083926 0.303817875307536
0.402286747418630 0.360689685225634 0.296276035886169
0.419307578829063 0.362171560885797 0.290933098337712
0.386095749761160 0.362044077621781 0.348948232836053
0.395673288984878 0.363644154096937 0.340797433244272
0.377826778003918 0.359655422722655 0.350000909827025
0.386516181672940 0.360424655548776 0.342874366888464
0.384381791388264 0.360604438537151 0.336786519968273
0.376766745245086 0.358487939886472 0.336306518512876
0.415581277186427 0.366004882862774 0.328177148772544
0.406849543830887 0.364725681168669 0.334129039329030
0.403257322007477 0.363132767077019 0.331643799688332
0.394820965347709 0.361611455333274 0.333921387506436
0.331367253993961 0.351849133777494 0.354713901421395
0.324789320982397 0.350761189210140 0.361360435742176
0.328779491995763 0.351105692694377 0.347293593323352
0.344615521926695 0.353540165360788 0.367212224826789
0.340028731529694 0.352918477634883 0.361546664875706
0.348591361010667 0.354146124492514 0.354921546081606
0.355941398964137 0.355890164876133 0.348590199609374
0.348780440772831 0.354576583741202 0.342000491639327
0.341444018510406 0.353391209271021 0.340962246851119
0.341125285282022 0.354276479872316 0.330204246552305
0.350294575808304 0.354960494659487 0.326623054799493
0.360018943893888 0.356701662927320 0.325262180446274
0.363123837143575 0.356754664565262 0.329344789181164
0.379121736941735 0.358984307388179 0.321473336870867
0.389758592685935 0.360585802015269 0.273499706474973
0.382463705085458 0.360211954245809 0.271007039442578
0.374335832283277 0.359212773097241 0.268536224842260
0.373987024206554 0.358778761306334 0.273578399582549
0.331037791515086 0.346425082235836 0.430269963808429
0.341812172184978 0.349345887904662 0.416768799276496
0.333222318484301 0.343858062500270 0.441657910061330
0.331836397275963 0.340501762427152 0.455538960252020
0.328323248166455 0.343071647116120 0.445282376935282
0.344707916673918 0.347765866103321 0.428680022105934
0.519928968122321 0.354257134274468 0.476001854115666
0.523365121609144 0.352545338941391 0.469455421266760
0.527999613480292 0.343021510431580 0.475894310927329
0.523745229301787 0.342497223958969 0.483865871871883
0.502404764399113 0.366217591328124 0.472642732063447
0.511321788615944 0.360893805993161 0.472055194582097
0.493736203266093 0.363669945839941 0.475514855011585
0.494850885011073 0.370042304120126 0.470465252879601
0.503080177163694 0.360926022394169 0.477255178118165
0.470575862663243 0.355995437588899 0.413932524057802
0.458174467793830 0.355564999827361 0.416360493279990
0.472920196733236 0.358357584506670 0.403303482474007
0.532163035388275 0.355184670100829 0.408431777713567
0.518244805264809 0.354772818724489 0.414784983780259
0.519195611675180 0.356291960266031 0.405588504846189
0.503546090210734 0.356195977164673 0.409871330849594
0.519163094454065 0.352139926547822 0.426287463707798
0.508478608859552 0.353902596290939 0.420829992484702
0.509135685922358 0.357592641948269 0.400030488083442
0.547068170334982 0.359672612443069 0.364089611840309
0.541626262971244 0.359690504077066 0.373894606877016
0.536207991473076 0.361029876955001 0.364684139807961
0.557547453642059 0.358851788968558 0.363631033073978
0.533889886051481 0.358222229783180 0.389594673281861
0.530388268379417 0.359472065704912 0.384144192545067
0.541543537441755 0.357929990211384 0.390103087912624
0.521625378655628 0.359709140598948 0.384086929288941
0.529472915767399 0.357651387817782 0.396914865583263
0.518131711229255 0.357838326027279 0.397738475224958
0.565496983094949 0.332464873382643 0.494380379781041
0.548971215632426 0.331841731692887 0.501793690230401
0.554934616139207 0.333447552399614 0.492854698983357
0.559186923226496 0.328692424503081 0.508791267291559
0.539576818554946 0.333852219905299 0.496264086643020
0.549390931305855 0.328674532869084 0.513281745117559
0.534645660758994 0.330566111190535 0.510524592749453
0.514217468643432 0.324005360737001 0.534210208233838
0.513968575816612 0.327912455264086 0.520981393334706
0.520945453589439 0.328107264933055 0.521232320278442
0.505615804172354 0.323688804873203 0.538336099252253
0.499118877718239 0.325638391338667 0.531345512677395
0.506371364008362 0.329348520319346 0.517307083433937
0.527987795547508 0.327203386459412 0.522500076483704
0.599128678246336 0.350075011383151 0.400496057336075
0.589519617372809 0.351322712914597 0.400825240481992
0.602265071658681 0.350670205452468 0.390009969764668
0.612366188279044 0.337722786276504 0.447846302521174
0.598200426181623 0.337182019159446 0.460115558577292
0.602346013754678 0.339951003785103 0.447524117023941
0.599514723554905 0.342340367760196 0.438907748179526
0.612197163190695 0.341926374831187 0.430592149305663
0.590947796643830 0.344681750928184 0.435627326397266
0.600771005621791 0.345031998643992 0.426645926677487
0.594534002065095 0.347836766537644 0.418423438789197
0.584976517515192 0.349412505233648 0.417957869536565
0.521330001959856 0.348925455992882 0.440361733518318
0.533431350259451 0.353273746181529 0.419390432186291
0.538201139555021 0.354719838573698 0.411604663469873
0.486507137970033 0.330763076736940 0.517815934970094
0.473673607854192 0.331389792456065 0.518295499520097
0.486534355027354 0.333161049897006 0.509270824679178
0.457542172577954 0.331137662231900 0.520322597299858
0.458422572758465 0.328813490271476 0.528236887825902
0.448563909982151 0.330220182391981 0.523703134878760
0.674895937835800 0.442232698036417 0.271880914691716
0.679729837626128 0.451171345489051 0.280353899780732
0.680858629266615 0.444114249020960 0.281571820121562
0.697938772374857 0.459299218291231 0.315764938704037
0.700172712627877 0.464059338369068 0.322175415189239
0.702698878127927 0.451755072582375 0.321752684152354
0.708617879019357 0.453370190062893 0.336120289379346
0.692907183637390 0.456310362816718 0.307456330316476
0.698024004738574 0.451995742992931 0.315722100488290
0.696193299514537 0.446640414521010 0.309597961770874
0.695467735740650 0.434503046594765 0.304677325516294
0.692701630393162 0.440321050716383 0.300265533635485
0.691202543525435 0.428599810109431 0.298210022680357
0.685650980070227 0.453259889356907 0.291491785738301
0.688450039544224 0.458044375863430 0.298825973337074
0.686138738386960 0.444804695628519 0.288977696016842
0.691347216509865 0.449241075971902 0.300881484292201
0.688927770524049 0.441386813382019 0.294571560509035
0.649190157758887 0.387350203861464 0.262648595190585
0.657964786629242 0.392689782252056 0.266996119004197
0.664083610858095 0.389147962121375 0.275784291941761
0.651965574204932 0.380342520677179 0.269431522780463
0.709236701791859 0.444241732284977 0.332453414032658
0.703390055298603 0.439516722211085 0.322719677549448
0.714632863012146 0.442721874505084 0.345231084719539
0.713701029755681 0.439086972038364 0.341191314200396
0.705933403356683 0.431614450164564 0.327196167240462
0.715113430295840 0.432118681963360 0.342265850785827
0.706499962216744 0.425868786116353 0.328270259758116
0.702872214971147 0.424995698729401 0.319589630008889
0.749371834003968 0.392483498444711 0.466181989970802
0.750776391734187 0.393240548056488 0.474741088396705
0.746937354175174 0.383431663845538 0.460452169114905
0.741867095729160 0.377593626537255 0.435076066388372
0.727884683487099 0.370903946018236 0.402823488180994
0.727255826215305 0.381785740953562 0.388749648113484
0.724125155547381 0.370811536946247 0.395296073800007
0.719067796554061 0.369973566725623 0.385053922686034
0.552457863922963 0.549463599290115 0.642197650570086
0.542982746783375 0.553945818887934 0.647999166884874
0.545364239298994 0.547295545802963 0.646803098976119
0.530042898246776 0.549750087467957 0.652941225828520
0.487572542516494 0.485290068394052 0.723741458405437
0.485641420675708 0.499077670967143 0.709882260646824
0.478691115345687 0.495348919789349 0.713241375536660
0.490366158579028 0.490460600209145 0.719093164621273
0.663536411920649 0.466929305439771 0.613404732792195
0.601992901085467 0.497284912050919 0.658585363090539
0.587202593471123 0.504770326215029 0.662023163925567
0.599673728468730 0.492791239801874 0.669128284175063
0.595197947853683 0.504718033653054 0.653464065499664
0.610546226630265 0.496998423873077 0.647247252702070
0.581949694245716 0.513040730448971 0.652826692153881
0.585369016131300 0.515658574457893 0.644024094175937
0.578930749598096 0.522623283341144 0.638523347831702
0.571110859286657 0.522848189345604 0.646581029275528
0.574697064707922 0.530791265490957 0.630759431547359
0.566634369595642 0.530169570602668 0.640120716925892
0.606172875261732 0.508271299272577 0.628603375052578
0.608429742304354 0.502195449344757 0.639669572713640
0.616772493774087 0.500200725538441 0.629742165380438
0.614237002850713 0.483662072947991 0.665890693446167
0.608218459153322 0.483791704927059 0.673024663776423
0.594884958856871 0.483558204062393 0.686368012350194
0.598087983922969 0.476995312056190 0.691797070397922
0.607753606139040 0.477615588792544 0.682213708156413
0.610418012803131 0.469540703303538 0.689018058435357
0.616016847989477 0.465052044722948 0.688223306036806
0.634679161614111 0.447213405201460 0.685465723925689
0.628588986919280 0.447227028054888 0.691252808037713
0.632967344793884 0.436421841973538 0.695421537271875
0.618863902595346 0.456963572192431 0.693473132599689
0.596879682663187 0.463674725537200 0.706544568446053
0.588064937282817 0.467101202643906 0.709567072798275
0.589301888076621 0.461998720634501 0.713470450048321
0.602348885870464 0.455791799088528 0.708958112627860
0.611424334848055 0.458448334293147 0.698773224770016
0.593589276518320 0.471092082733239 0.702046656065974
0.602247180024684 0.467901949957451 0.698465464313162
0.574845326046488 0.446982067376612 0.740644576042955
0.573286791395665 0.445144206931452 0.742893750685691
0.581585128925280 0.440924846808290 0.732794546421724
0.579138458719759 0.441249295618711 0.735731367180068
0.598206872326778 0.442017095968130 0.721277641453804
0.589733772639627 0.443915134759504 0.725932925724269
0.607944848941023 0.431769179135436 0.719988462559476
0.605786822790779 0.441726303197802 0.715863008446456
0.588708119321621 0.455354177456334 0.718849665069233
0.596763652050395 0.451114053583389 0.716607488075181
0.566668749036469 0.469042208573930 0.720081580707433
0.575983428785532 0.462534466920721 0.720905183186745
0.635456996462822 0.605935483664034 0.520530249122454
0.636353003476992 0.604485530747156 0.529590764530436
0.638163654027213 0.620795996961500 0.516053759431439
0.614385980427630 0.616756699159669 0.627457587076034
0.612687772136063 0.623599282241766 0.634268927841279
0.606608355341258 0.619083041322296 0.639368373000079
0.611598380767242 0.609579919263200 0.626698245501534
0.616041207255779 0.608162698438942 0.618826793191239
0.632967344793884 0.609735128113767 0.585235193062716
0.632774683839966 0.618185451421371 0.593715605543428
0.628412799447425 0.606426106934169 0.593407408181181
0.636781328335395 0.609274013863675 0.566448361400837
0.639208652943067 0.624161815842298 0.574878501111722
0.637604271875424 0.622239145614048 0.581389086231183
0.635449841241700 0.609287765640006 0.575587569916395
0.636144578116978 0.614316689970809 0.577650078520208
0.633720118462708 0.602637349307365 0.569327481997660
0.627034033460209 0.595457561209823 0.579720021678100
0.743083268448415 0.430732760755022 0.510875191422053
0.744204904867779 0.426141680090301 0.514664471902853
0.745088019591638 0.426475447161663 0.499859703436212
0.748677813367040 0.408762163676290 0.508633451333395
0.748232298788223 0.413303107656472 0.500382543107355
0.741336363111393 0.440367606209169 0.475120544312450
0.745360204489619 0.430939044562367 0.475034860718572
0.750285761301669 0.412398491457328 0.480392223307409
0.745870853784036 0.429718581575392 0.489782358766704
0.747821887050968 0.421461771545343 0.493033930468203
0.712105952624212 0.476190260150158 0.482025440131045
0.719970958789353 0.471562651329559 0.473917485917393
0.691294938272658 0.491749113001806 0.446499860370719
0.740468991306479 0.443420206896882 0.446986852312417
0.741564119744488 0.440818127294056 0.454693498178249
0.737355496034201 0.414158296247043 0.556299321272437
0.738959153701110 0.408105365946441 0.555755058912229
0.741796195294838 0.399514817494564 0.549824583882422
0.740019207947092 0.413558790422856 0.544008649689637
0.729749782476731 0.427736019496269 0.563640506519895
0.732699259166729 0.421270543068127 0.562465861300205
0.739927515113453 0.428772437876683 0.532226385575219
0.741263299637252 0.420549291049111 0.539295658095268
0.743148431813549 0.421398742570494 0.530550323373451
0.681848477829475 0.485425437442308 0.527620937169185
0.689671935007900 0.479989911762275 0.543557498315002
0.673058786466608 0.488277505716631 0.520344019988924
0.700873909973078 0.477668576105719 0.531617425404803
0.695240688183522 0.479671178533891 0.535363423602079
0.714809036159234 0.438547651722774 0.583645251360221
0.707927418087032 0.441772149614622 0.589747530483176
0.712279289467432 0.462553089117836 0.554974301811047
0.710582520814950 0.465799797560935 0.549466120912733
0.703377864921876 0.471932230318449 0.546988308663729
0.701188338608975 0.470981782027253 0.554250800803610
0.650679210127322 0.502749108752125 0.426588663421360
0.657441932633331 0.500057470705945 0.427297732226033
0.646457701289108 0.504390727051614 0.433965689235879
0.639474377371126 0.509264005626456 0.415515468111613
0.648529062598934 0.505403480916926 0.410236798630352
0.641481993467752 0.512141142243049 0.374467719317986
0.638102780929799 0.514769722664845 0.364139447704741
0.642711774715667 0.510286077752709 0.386464625741301
0.651938357147611 0.508213283966182 0.383449555943159
0.651598136768710 0.509276897916767 0.376945968472382
0.664664480160401 0.505204373817853 0.400474204903999
0.672628341542687 0.505441448711889 0.392925374996331
0.675524078869243 0.506038068095524 0.384151190193752
0.669506258572586 0.511473600937941 0.363380543035636
0.664411655185036 0.511282358135957 0.371509912775970
0.695964088917590 0.482924340284528 0.499616211046555
0.701075165787202 0.481959560063937 0.493742999272876
0.677297492187619 0.492654438276917 0.470887983916487
0.689272281170670 0.488867686117494 0.478114635489305
0.688096926875014 0.490577354222670 0.468151817332052
0.675307058649023 0.493137906325930 0.462321450936504
0.674225545902057 0.495418402071737 0.455732187034234
0.669893020119506 0.496068030255697 0.449207176874393
0.665896402960985 0.493892821547423 0.472878797061409
0.669269183678550 0.493590568963485 0.465351389842805
0.661662725233195 0.495578130386296 0.456570214553926
0.655388470119886 0.498795465894638 0.447380733268541
0.636474771158971 0.508751888043421 0.438005459755022
0.656293086319029 0.495963452294131 0.471074213050016
0.654784688352745 0.497395936157639 0.462629648298751
0.642421691021306 0.504425099330058 0.456727593606695
0.630130331849690 0.510928550715547 0.446793632692586
0.646645355736955 0.502837191744477 0.449672746127025
0.613344577028296 0.518527116214278 0.440476274355339
0.613378240230772 0.519223307053409 0.431659251337016
0.620659512140205 0.517417670171641 0.405330580253769
0.628688551212392 0.513136713550330 0.425184513947000
0.633594067675393 0.511231512375451 0.418409013748817
0.381601354111381 0.548832593303270 0.297651335279768
0.373409019857650 0.546017067509593 0.295280629313708
0.456487225111411 0.539444133841716 0.353617942146899
0.436085748686324 0.541375112434832 0.336535593024536
0.448770974489298 0.540790676265540 0.341363118293546
0.433145160514256 0.538720733107648 0.346427145465909
0.423551147808474 0.539309488194194 0.341413391063371
0.429355973144441 0.537831888476984 0.354062095872850
0.392495339423434 0.552627224084549 0.298797123256313
0.396151736203054 0.558221045602440 0.290524799503591
0.389456340101998 0.557321450234134 0.285754537490709
0.587191126495131 0.560138415666896 0.286126995757769
0.577175249400868 0.568279180759387 0.279938596135542
0.571615807323803 0.565241613914652 0.285331806453824
0.617126315519265 0.550699117607219 0.277138168646295
0.617067569649752 0.546659526147664 0.286098145677009
0.577575626638832 0.545164020471690 0.311166487946689
0.582310678374399 0.548413586705808 0.304204758614976
0.569837387499357 0.550649689998646 0.304426835477951
0.542765726563154 0.578315828765816 0.280941437262081
0.555057809135504 0.568413833569292 0.286749944063171
0.532333929858720 0.574137294228636 0.286262952121473
0.555387278776763 0.562633073841904 0.292830800497061
0.535757549174407 0.565684965453650 0.293575717031180
0.506149544991193 0.589121716760749 0.278305816217298
0.496494222282603 0.585332815886275 0.281371158785268
0.510114282380731 0.579600044128374 0.284457931204687
0.465833884902826 0.601411578994212 0.266272625159144
0.479175578966007 0.608124881054033 0.262620174852834
0.476646612974007 0.613665557686312 0.255421950780150
0.481776168793064 0.590922339974063 0.277661008317438
0.503758096762501 0.595276352907131 0.273836317012586
0.514925756748303 0.597108633855539 0.271436760965765
0.507530380907242 0.604651125053806 0.266358745658415
0.494772385287852 0.604498208165961 0.267010544044577
0.592131745799693 0.577126873103883 0.239220467393227
0.599211038494267 0.571062482989672 0.244484711834107
0.598986132489807 0.568113013462056 0.234256978598132
0.593263395231198 0.571105457290705 0.227954052463648
0.584371296108967 0.584772001257784 0.243689959435556
0.592269965476584 0.577304500214822 0.248517484704564
0.562137108992462 0.603331384269060 0.242071167652300
0.567359919044762 0.595415303147140 0.251661520380110
0.570766348640036 0.596312033562044 0.242149853597492
0.580749278770173 0.582741465533940 0.257670681355109
0.569956283065550 0.590274860505154 0.256911776686004
0.581300066061756 0.578601607867690 0.264095582880691
0.560628711026178 0.594446948897180 0.258895599344624
0.544584971973582 0.608033632288171 0.253867419901706
0.579195041549453 0.587242307328874 0.250916603845991
0.586547221055592 0.581217310323944 0.251597259475297
0.595122742826874 0.572580908292864 0.258121832729745
0.598360863572149 0.568322155060420 0.263751537788999
0.604153799351497 0.566040219675529 0.256789815619670
0.546942828623633 0.613240828344429 0.224050675213603
0.546066152882545 0.616063666931665 0.234479055461106
0.557273134353793 0.607550672768387 0.232953381825807
0.552221505267277 0.606982552508721 0.248861092890864
0.552420619528734 0.610245161443202 0.242357505420087
0.521513358977600 0.601120284857039 0.267605079174612
0.338546118144030 0.464336522610736 0.257584997761230
0.353185306628790 0.531412953216861 0.292307960825917
0.352991936598905 0.529072293449607 0.287409177003412
0.363727626073099 0.539730636344324 0.285210275130502
0.355591158410712 0.529405337120235 0.275977955629369
0.332159427934450 0.498038394795710 0.286091148028324
0.340235724413007 0.509291938922128 0.281772037390079
0.351611021896637 0.521384190994671 0.270978626267212
0.343597754392930 0.510665684078507 0.273979707930369
0.447700986017393 0.575522499198623 0.207347767682219
0.458691448635266 0.580211711679754 0.204110621021100
0.369102278655719 0.529445446467867 0.247629184415047
0.372808812119879 0.528593853393815 0.242450616405660
0.364314225282210 0.514333540671736 0.244527986955248
0.385344415731420 0.544137643752951 0.238482978250803
0.355109130000783 0.512850934448456 0.255471786644581
0.356757910683778 0.520560516891525 0.259261059962998
0.364413782412938 0.537956513949982 0.267440272730147
0.370364290629410 0.541142342133283 0.259310895827431
0.360584055952481 0.531132918346558 0.265499295449658
0.380344355806144 0.551731202745612 0.255894517681467
0.374272803308428 0.549316770428250 0.267389999960321
0.366948549935578 0.542050532361796 0.271415345439084
0.387620621209507 0.561168366415004 0.270928353497385
0.384514295483118 0.558741034644949 0.265886178757097
0.377230867696250 0.552307788942582 0.274924841733004
0.394262299434271 0.566680536760932 0.259676363608189
0.411992421683265 0.555442757040609 0.303896998158122
0.420536572214793 0.550275097341302 0.315313794491785
0.425315887480425 0.554217989461148 0.310307030575548
0.575737759031289 0.548682906650386 0.199569433519880
0.588068518474569 0.555664790929284 0.209732898688659
0.592820759930550 0.549606854122611 0.210928959435031
0.578478803198891 0.559312592848697 0.205034332134670
0.586827986489012 0.562161789007234 0.212089179614339
0.600794641487360 0.552241171613596 0.219172870012386
0.602739228609137 0.546903047186855 0.217998231955081
0.608771395159956 0.548950049230379 0.226020065669461
0.546183615972037 0.589805724385536 0.202706471546741
0.549768388916602 0.599698766602678 0.209876289606442
0.555366507864596 0.590328578381447 0.207089850252181
0.515111477352604 0.626501551662079 0.217153206786704
0.507657584838302 0.616206341611097 0.208859023439523
0.510881731773358 0.629542771322402 0.219996479654081
0.498945189918228 0.627825303381589 0.219187302215150
0.509747496721408 0.602352143196171 0.201403304517426
0.501789873775156 0.605795960433344 0.203429965391794
0.521973040750991 0.595327922068371 0.198953475700779
0.405373519838049 0.549790920216322 0.222782919008342
0.414538290900339 0.552355762587302 0.217060088638747
0.410458382384031 0.544476431655150 0.216386867563520
0.413929345054690 0.558428754724103 0.220433635731346
0.403220507356258 0.555714211375472 0.229035579535381
0.393876963201668 0.536017656735010 0.225483237863330
0.402196143267284 0.539402606342150 0.219989482005396
0.398394278478665 0.492532670594938 0.209947985065334
0.413065991346923 0.501537226300590 0.203143627624006
0.391518390313267 0.490040168297365 0.213894200531126
0.401448462053132 0.501393262392127 0.209489406299002
0.408712121661525 0.511025951968840 0.206653131080310
0.402553188085040 0.508906602689526 0.210234322833122
0.391786263456377 0.505514490698879 0.216522823927223
0.400048144453948 0.511636179881135 0.212655294406623
0.393889139253628 0.501000054700052 0.213987311516699
0.381942999804599 0.490383962705635 0.220784671309341
0.413467228070908 0.532925655775632 0.210019673361841
0.406148991100202 0.530236897007621 0.213679558222228
0.424667691773166 0.539171963268502 0.205270834038026
0.424320960787658 0.534644627816982 0.204375536099823
0.414946045393314 0.523909647418754 0.206731817025503
0.443477543335632 0.545439048835922 0.197700151698282
0.440747314367124 0.538188575175564 0.196625615112850
0.428920929970310 0.532103421311570 0.200751506131264
0.484361287871748 0.592886981769655 0.427297732226033
0.490059465317317 0.601382929460190 0.420049228221138
0.502695628793277 0.594959775556182 0.423243536666510
0.489295668740277 0.584562859659420 0.434316724813873
0.526266173424261 0.618855850517497 0.410845321895374
0.531546927159122 0.620162269268923 0.411225207554128
0.522406150081576 0.608319697885386 0.415730117582893
0.526101366979797 0.631144423521929 0.406096919476952
0.516435873686629 0.619665987715818 0.409434611677722
0.541931881875430 0.617211940255287 0.415042901210295
0.537385344073730 0.609668374699494 0.417699944944144
0.454376613939974 0.572807955849992 0.454801041366585
0.457916192244618 0.582105445878641 0.445318224664729
0.462673805488228 0.562147464240223 0.457608896247528
0.485212393903722 0.576812444467986 0.441815718857110
0.468098687866372 0.570026086096408 0.449572637492767
0.471711064636967 0.577225713996260 0.442660744025486
0.455709963253381 0.630887795320923 0.416317655064243
0.463206937504469 0.617749978504229 0.418043553130442
0.471814503779555 0.591455221306881 0.432189518399854
0.479402769770806 0.583158316253968 0.435834971057478
0.507256348114317 0.656168717133050 0.401269394207944
0.517796654928862 0.650087853536776 0.402272228172100
0.507309134880754 0.647100566624251 0.401835072094835
0.489444216574184 0.615380303921394 0.412542799623823
0.457854022755789 0.549407016460421 0.464098058677923
0.467918539596438 0.550944787361462 0.459334794313728
0.472074834932834 0.545795033620919 0.455273608267902
0.472344183526946 0.562623762743347 0.453211099664090
0.500459890781997 0.580324877339143 0.435892241475989
0.424322536512030 0.634305899601311 0.431917168767052
0.433626687557339 0.635276617437828 0.425564399605755
0.432180459079884 0.540287153542711 0.480986751275060
0.438830588917184 0.542765338235657 0.475221089852102
0.447074420708321 0.543798153937168 0.467722095808866
0.419166981240847 0.534244243416634 0.494387370267342
0.425009910457064 0.536349282253703 0.487239411802100
0.423655145616976 0.540550005854984 0.495819932917069
0.415477351001761 0.535216186020730 0.504944716392247
0.420180243635388 0.540571493005501 0.502173138983761
0.422510166989767 0.544919790356532 0.500840684968292
0.427939468558534 0.546158159302270 0.493542345098966
0.431171995482292 0.545841574788938 0.488364221157358
0.436065192645663 0.547489646395966 0.483880296912264
0.409669589088556 0.537738770329027 0.526138538655026
0.404214717810674 0.540399595801366 0.562107828073526
0.403971268395318 0.538023840354935 0.549050817267542
0.399735936156938 0.530034201554412 0.548356173503250
0.394540199914289 0.525937318189196 0.558763138224071
0.388992217650833 0.521812508690691 0.572679599238812
0.406801985604410 0.539377537999881 0.536753148036058
0.409568241361952 0.539675485991331 0.528065090895136
0.404657353111321 0.534899615832165 0.537891945526301
0.407003535076258 0.542622799641511 0.538371939819315
0.405270381515568 0.547489646395966 0.554186102993404
0.405901888869258 0.544857463295266 0.548965133673665
0.405484321910881 0.548753807084708 0.543772147786282
0.404809267265476 0.547363595608650 0.561807065265358
0.407123934742988 0.546208295986810 0.538035329281701
0.407808228863115 0.548060488361364 0.532706387030614
0.410565603265110 0.544078203132238 0.525687387280390
0.412952181073018 0.544458518534003 0.519599103454806
0.408354647100759 0.554063998215777 0.522177454081076
0.415660779643340 0.542402921630272 0.513145788753855
0.416491472882322 0.545643191090600 0.510982734610391
0.422172460607477 0.549535939363522 0.499730744721192
0.422284122166329 0.552796979736016 0.497016000825824
0.518960542248526 0.542332730271917 0.405917680829724
0.534596526808146 0.537861254249357 0.432841323948399
0.530429523708410 0.540481970374064 0.415894924027357
0.522923059299176 0.540696125640882 0.419354584456846
0.509803076817412 0.543346923776313 0.404836153757991
0.503725722789055 0.541191039178737 0.372025325055418
0.515283947547419 0.540827190096652 0.373801495891443
0.517902085214065 0.539744244872985 0.370077350126243
0.517122244897973 0.541882925425381 0.384230313044339
0.527622513988721 0.540325823251258 0.382489553032366
0.492330442255445 0.543573971333442 0.384717304986036
0.504949702506331 0.543315409288889 0.393469630194155
0.503221132871084 0.542807596298340 0.384409114786174
0.493425713941124 0.541755442161364 0.372240404269708
0.508645420771398 0.542422252903354 0.410723790572050
0.499779249477457 0.543329017817549 0.401104580601096
0.485649227673730 0.543634135354889 0.395553998392428
0.491230586644321 0.543746584775927 0.392051492584810
0.494048769682279 0.543019602850107 0.409233957503813
0.494012814517080 0.543801018890570 0.403883592563661
0.271219713191176 0.478879026080553 0.424246370630666
0.277372193460122 0.488383501830131 0.418444861478263
0.272013305283599 0.481457484142577 0.416725961060748
0.287885139969675 0.497586455558889 0.426079811885203
0.280109656435971 0.490927580451328 0.429095318588740
0.317026736901387 0.507940404317001 0.439323051824716
0.313281526566296 0.508763347857030 0.431594983269819
0.332945134242633 0.503353613920000 0.483006421663127
0.376605591616209 0.517392601829371 0.477061958498334
0.388714317170815 0.519983235943355 0.483336034552056
0.394677001439246 0.522210020975253 0.508719571832667
0.404778683887907 0.526112796585084 0.502173138983761
0.401484918585176 0.524331511807235 0.496163978008762
0.398528931288570 0.524645940443132 0.518510578734388
0.570529989984351 0.532566820362000 0.346118948103663
0.570807174226018 0.533654779254121 0.397122517405859
0.563595370274206 0.534686878717281 0.390640352624148
0.580412646745409 0.531401493403252 0.411740619833577
0.553545113739117 0.535671004535721 0.446277783507744
0.559370280244240 0.534883135187719 0.449837552571490
0.555115108203549 0.537215916333117 0.455968688937590
0.491805726039823 0.540403900393853 0.360730489788089
0.500666597169969 0.539637525358751 0.357693560395486
0.512493411309794 0.538663441201987 0.358302083660508
0.555587109276570 0.460357818573362 0.732629739977260
0.542406174911172 0.459516238511452 0.738882837409693
0.556355633026723 0.457480681956770 0.736189509041006
0.542386836475707 0.463871676758838 0.734148423126258
0.737617660757657 0.361307061196669 0.533222229053072
0.733477065365906 0.354638882152934 0.539911608751984
0.735778346348646 0.354895302644819 0.530228137876218
0.728305824474846 0.343258585325617 0.532097426860199
0.723176139732886 0.387737688809118 0.589504030931136
0.728935412309758 0.380369021496150 0.579741874110176
0.691971067275589 0.319642043867759 0.447889584804699
0.687637832417070 0.320055320558417 0.446693087152933
0.689093930658996 0.322774168499535 0.431322633637018
0.675466077887615 0.323791212632567 0.441156922822263
0.747617057207474 0.392661118393267 0.522055922757753
0.745130284816705 0.402943443316322 0.536051076880070
0.746965989384429 0.383177406393472 0.524505314669006
0.746211074162936 0.383173825201719 0.513360867968145
0.749038797495723 0.384911419440183 0.475357046215806
0.743377642410496 0.366630868018782 0.475536277700651
0.745332249706797 0.372991071734158 0.482268939683086
0.742508845291264 0.365342348063737 0.486537777551506
0.745604434604777 0.370701236240260 0.470028096802336
0.747839814496882 0.381015089975508 0.478143485570067
0.749011587600785 0.381310173013556 0.492324861663530
0.742737311000326 0.365118165460011 0.502215984361892
0.746329984053897 0.375553056314120 0.507816839340385
0.743680618395167 0.365800024369746 0.510395634034434
0.718181809714415 0.468512199356898 0.373708377743487
0.715172885241320 0.464836456979428 0.359942298132830
0.699379829611421 0.492510474368454 0.372462481132683
0.703274755248930 0.489241562536488 0.384337419327282
0.701384595079412 0.489817425332723 0.361074097974388
0.698556155508275 0.471165848120964 0.320764268066194
0.658342244239988 0.478386254095366 0.253574084485232
0.644132068202449 0.475703941472510 0.236448453079347
0.650031014420063 0.470429569421353 0.242235974096764
0.638601275659407 0.469453329387153 0.230288903537880
0.650268089314099 0.483884815912632 0.245064821923761
0.658023518173988 0.465708119052063 0.251582834434917
0.648181686998911 0.456359059862173 0.240008222143093
0.647099450851212 0.459979637561882 0.238518389074855
0.630381015272387 0.495913322771975 0.226471646787107
0.626239732291819 0.484525125835652 0.220433635731346
0.634702081241329 0.524736895551270 0.242250399137144
0.643077765350421 0.517858149594853 0.250701961537095
0.644556804706716 0.507249227146325 0.245616511675664
0.644612671298060 0.523237815845927 0.261574495510548
0.643087792687329 0.527976448773247 0.267920274185544
0.651604590076249 0.516907701303657 0.269911524235860
0.657323753305489 0.510023225440436 0.273979707930369
0.649888490150685 0.512937584964107 0.258680520130333
0.654615656102012 0.505192906841860 0.261259307661999
0.692190236210861 0.498099282217892 0.345904305794765
0.693664970974668 0.497273466562077 0.359233229328156
0.697754684793995 0.493794689731012 0.353926139509146
0.651471362580661 0.525112935010082 0.323829617796547
0.654502490442624 0.524807086909625 0.320391809799135
0.691235497651945 0.492060683846684 0.437589719204438
0.695852370059669 0.491628075882945 0.426430847463197
0.692755341107071 0.494848992583040 0.415837653608847
0.684011517648173 0.492413073115161 0.447359310579476
0.679307980400031 0.496332322207054 0.434101645599583
0.472817165846507 0.546380193190945 0.325749172387971
0.482626200467511 0.544348217828016 0.330533859441233
0.486071521805221 0.547588480125960 0.323249507706893
0.469514361615792 0.541719637406219 0.338469572656342
0.486763408051864 0.542629245786666 0.335275264210970
0.497522883801681 0.553536130551412 0.312806695256626
0.522875214577359 0.549955647874568 0.315428328166423
0.539682463711654 0.546637322758797 0.318594223436427
0.534695940691204 0.552272693263404 0.310257194711116
0.593718922822155 0.535706100214898 0.324524698466234
0.608543624202093 0.530127319702369 0.330748501750129
0.598154594089571 0.537346271712919 0.319367553145914
0.610693778892865 0.533251544225138 0.321115310806572
0.602543695539433 0.543329741218283 0.304591641922415
0.622025385837111 0.520367125374489 0.353725485335236
0.615468216575330 0.522644770491661 0.350029759907786
0.602290863401685 0.527196465209484 0.344586276819677
0.609871530104036 0.523263593264163 0.354090953115993
0.594703757716562 0.527792382679536 0.347229332418539
0.579062537454599 0.533681280073092 0.336442474876580
0.587418174052259 0.532488743219406 0.336327941201942
0.572777545928415 0.533608947162069 0.340596779070361
0.750423988140944 0.394807670405135 0.487848371972515
0.749495027000264 0.391470744579399 0.490061698885807
0.749533001957611 0.405911520716286 0.475822615468439
0.750261416360133 0.401268885215091 0.471267439832232
0.746511185194206 0.389541893214185 0.448920839106605
0.744858099918724 0.380035992150289 0.446041281604388
0.741206716807558 0.373236010925284 0.449422256088684
0.740995433656525 0.370926156569487 0.442825557632335
0.749969885864304 0.394681633942586 0.460588125478609
0.748994369230838 0.388614386037357 0.458088460797531
0.733533655357984 0.454830614384457 0.431286793069956
0.736410806299343 0.448238349443498 0.430685260291236
0.734515618136605 0.450129927764949 0.421603322194189
0.736562634504895 0.444753126467278 0.417348909366149
0.734549281339081 0.439226638516723 0.394572579954953
0.737358368149987 0.438658661504727 0.405258884794877
0.739458386156219 0.429914838045830 0.405358993429135
0.720064076937310 0.456841804510452 0.361697046279790
0.725514657947472 0.451349688838341 0.374475153872065
0.723819307446924 0.448444633250843 0.366016164080418
0.576513445164948 0.529465501141682 0.366968725274748
0.578806124125098 0.529074442164659 0.359942298132830
0.587033561220390 0.527550286954662 0.358538585563864
0.588008354453122 0.528060248660263 0.352042432647167
0.591424818547688 0.526463746214476 0.374768482126154
0.604173854025313 0.523453403589446 0.385032499996969
0.605832662045215 0.522576727848358 0.394587004995334
0.614950376247873 0.519593595118266 0.392330839866296
0.666859041628908 0.501300874807288 0.419010539365153
0.659689481415012 0.501123233371582 0.418208359574906
0.655394916265041 0.502730486555011 0.410530563789835
0.631745449330208 0.512920402406077 0.406727302336433
0.630931809726353 0.513441816762903 0.399156612834305
0.656183494689010 0.513294278825070 0.364870368941490
0.659773295626795 0.514710998282483 0.357679135355107
0.663288586288971 0.506858877245268 0.391020238282903
0.663544283380122 0.508802039052727 0.382883433988490
0.687618486819221 0.495043816576776 0.431623403607569
0.682301849542998 0.497850747510246 0.423644845014331
0.673174824241783 0.501499258505627 0.414827821996005
0.664938090372700 0.502630922261899 0.410609256897412
0.655927797597859 0.503700989520023 0.402236380442654
0.656932687166081 0.505758742301188 0.393404932383950
0.637984601601956 0.511063919763803 0.392552916729271
0.648219654793875 0.506288028117487 0.402229389956352
0.605095652782487 0.520824092604532 0.451821375230111
0.624627465439937 0.514106493114608 0.433671916914012
0.618093946368491 0.517316673401828 0.426881991675449
0.603900243813015 0.523514276686860 0.416123991376635
0.612643379683095 0.520251101924082 0.413710447194828
0.552046026871390 0.499501684070676 0.695013238437753
0.558972051721327 0.491963261106241 0.700105678785483
0.572359978970037 0.489009501310906 0.695936949551323
0.561299110122304 0.503510470118773 0.684269663179319
0.542768591516556 0.508019183373179 0.688774566045700
0.539879787377233 0.500084702088034 0.699976720070465
0.549504096965244 0.490377516560480 0.706830906213841
0.570514232740638 0.482887812128650 0.704123589710167
0.568869749487747 0.513428938797360 0.664300758906054
0.577414473009955 0.503269799708217 0.672788161873067
0.570935380890769 0.502238423645791 0.679141367939759
0.585633308082657 0.490414044716358 0.684935449700467
0.726192935665455 0.409102355405657 0.582756951070703
0.728027931157212 0.399694571833405 0.582248536439940
0.451661927343673 0.542326993202729 0.397988965263300
0.459898596751304 0.541895824878074 0.411790892603402
0.461924548549704 0.542949411491751 0.399758138450641
0.444934085645336 0.541015567945233 0.403231787015115
0.367010146433726 0.518494169250153 0.442273860718047
0.373415466002805 0.521185076733215 0.439287204095270
0.334021647645912 0.506263683175951 0.457551632991401
0.337334250017263 0.507344486846950 0.453877323090633
0.346863070708376 0.509960189303203 0.454142245331738
0.345835999238437 0.510309713618277 0.444293968011506
0.351337418846722 0.512704105586591 0.445633412513277
0.310884283969348 0.447961165201830 0.295903577619110
0.312108320985692 0.456172121652676 0.295975273078000
0.317163538426344 0.458642427723766 0.287058141425418
0.323409845919214 0.453756256858613 0.276622319461452
0.317281001515836 0.444490274155006 0.284293554503232
0.324533631053630 0.466619890472328 0.278463195270068
0.329932628577785 0.471274007274282 0.271250531832235
0.328422812459567 0.483416403193748 0.280088977539626
0.321691604440982 0.471704466522970 0.285288961075694
0.265110192898496 0.425952578840985 0.382675782165895
0.270425397698018 0.432997506419500 0.371352103980190
0.271508357246452 0.421756145507424 0.364963487089447
0.268751548672754 0.424607504705780 0.370370685542716
0.292941797049412 0.461496644713140 0.332546532180614
0.296629708316457 0.464865106513451 0.328929492698357
0.300321200775255 0.451947024460326 0.317834881861929
0.305344173165365 0.455026140291777 0.309132392518243
0.298391640334074 0.442165364469080 0.317748761362657
0.299591353896032 0.457769333174430 0.321007767618235
0.305240325766917 0.447853729449246 0.307656984490385
0.311051876580996 0.461566836071495 0.302356892320059
0.297894578081167 0.407510888115475 0.315585707219192
0.298094401418590 0.423513787257321 0.314461334769329
0.300228791703266 0.422443025247997 0.309777200418103
0.293174567350961 0.421458197515974 0.323270930395958
0.289394261336694 0.442666724152090 0.332890140366913
0.294744561815394 0.451968518773226 0.326515511611156
0.291660446640256 0.439137101560520 0.329838778771546
0.276092282690051 0.441844489688028 0.360257485981378
0.277259042125500 0.439339087937762 0.355924387208147
0.283324141315678 0.445866168026436 0.345467149717501
0.289584780737943 0.454434534576596 0.336621713523808
0.285697755209442 0.441394692003875 0.339694490645857
0.283902861902933 0.432118681963360 0.341005085066865
0.286345950916701 0.426778423146334 0.336793510454575
0.280604591460977 0.414726273259039 0.349965062097579
0.276267761085939 0.404047861365739 0.360852021111413
0.289183687261628 0.421852128608783 0.331350034528849
0.285194955887347 0.410415958027739 0.339737328861604
0.315024843549182 0.503909400555269 0.320384819312833
0.308770657434455 0.497195389419482 0.326400977936517
0.324178383994135 0.520992415779297 0.351426474828066
0.337635062962115 0.525646525418868 0.350817514657652
0.328264516621709 0.523417598834301 0.342236993542682
0.321683718656743 0.519284889226790 0.361446556241447
0.333985119490033 0.522697055891252 0.364669714767580
0.330245631899364 0.518995536095546 0.379753823353325
0.326758976446443 0.518831517513268 0.373443462664764
0.339090459290458 0.520652904476364 0.375069252096705
0.313570886859924 0.515238156870880 0.371445214965763
0.267960119620150 0.472203691815696 0.404571238679269
0.271133048350758 0.478019547222261 0.406798990632940
0.343980934748097 0.531592736205236 0.323851040485612
0.352755570780836 0.534810802276696 0.323478582218553
0.362235701588878 0.537197294136002 0.321458911830487
0.360840469281983 0.538336843676514 0.316302210577945
0.374409604833385 0.532234485767340 0.337832199310560
0.382717253461557 0.537998772012665 0.325154637257937
0.371854066398579 0.536026251595216 0.325305025824405
0.478162173323797 0.541468953983523 0.367699216768487
0.477673555521043 0.540419650475182 0.358846782926110
0.362930452788924 0.521326891926626 0.376702468920341
0.370348533385697 0.522525151524734 0.392065917625189
0.367873213646154 0.523840888537100 0.369862270911953
0.441109014734158 0.538248739197011 0.360200222725251
0.436151499366906 0.538052482726573 0.363537914926022
0.410608864061484 0.536976699886412 0.344292511660194
0.417186152458532 0.537042600977048 0.347687474279476
0.412326761745307 0.539975597022600 0.335740840625986
0.400315014863367 0.534984848195882 0.347272170634285
0.412791385563317 0.536138708178638 0.353317179338731
0.438750513469591 0.540348750040860 0.387746806986945
0.447027721967865 0.541592856055786 0.389043413272967
0.440495126843891 0.540091620473008 0.378893936239174
0.436164678152556 0.538621190301687 0.371366529020570
0.442338652734403 0.539597416011120 0.371087181739084
0.430263733629944 0.537553264596232 0.365429056342079
0.422678196506809 0.536311314458740 0.362456387854289
0.347980402535253 0.526588378849857 0.353138384759280
0.342758315883687 0.523111750733844 0.365156706709278
0.553908246582852 0.546211877178563 0.316681659331305
0.548793588521486 0.551654579566869 0.308616980238794
0.522885743281112 0.572540798945232 0.288669498654595
0.502595140552693 0.577710607359591 0.286427758565938
0.541029708049061 0.556383177994898 0.303495689810303
0.545748859293246 0.558925107901043 0.299434496602095
0.561919372533891 0.554581838543233 0.301189244749055
0.502015990222428 0.565793833682935 0.297364560606587
0.505650255237016 0.571917671580243 0.291104902430862
0.489220105594293 0.572436228146050 0.291878232140347
0.521579682648862 0.567074467853741 0.293962600338619
0.530060660957870 0.599780131279302 0.422326816039242
0.517803244321687 0.600038406828514 0.420321577853940
0.518464117447751 0.595783449659329 0.423300799922637
0.511038802843637 0.592722246949026 0.425170088906619
0.521711184010025 0.591801164430203 0.427956528260880
0.513261505316937 0.582648354548367 0.434316724813873
0.608531448150134 0.524926705876553 0.547761645535599
0.614592249910208 0.519085065889367 0.537877520485922
0.658083682195435 0.492547711600300 0.510073011631807
