# This PCD file was generated using the MATLAB® pcwrite function
# from Computer Vision Toolbox®.
# .PCD v.7 - Point Cloud Data file format
VERSION .7
FIELDS x y z
SIZE 4 4 4
TYPE F F F
COUNT 1 1 1
WIDTH 868
HEIGHT 1
VIEWPOINT 0 0 0 1 0 0 0
POINTS 868
DATA ascii
0.679204298816558 0.474312324081017 0.560097616218791
0.717251694422570 0.447531219209674 0.534102812837244
0.973267661207247 0.129485638091653 0.189693250212479
0.834483884682498 0.528303283785397 -0.156627860059358
0.847812806231571 0.504723697229260 -0.162688152749284
0.920069240565405 0.387045605494395 -0.060566424963634
0.926700023144779 0.368815874111615 -0.072124323960446
0.962426836596999 0.270220229075447 -0.026750925148599
0.994676739154980 0.060363437231626 0.083513112920061
0.990237888702577 0.113113806736299 0.081450540228331
0.716216843129516 0.687607745751652 -0.119285462651242
-0.238769194870771 0.967301582436856 -0.085538998099808
-0.324050934427946 0.859253466681127 0.395821262557788
-0.191860603056312 0.971586499874704 0.138597194257643
-0.096601397190162 0.901060579752475 0.422797826007942
-0.133599114380570 0.893476240400584 0.428779062544296
-0.219279679633052 0.912287650835826 0.345901234794667
-0.260871363254892 0.859387283310091 0.439772246871533
-0.147766451964955 0.935643039716125 0.320526407499380
-0.332785837752920 0.837049566996495 0.434282867014193
0.053263838478861 0.889147301239839 0.454510770178672
0.014192227940916 0.919270989047364 0.393369329462725
0.017613350257670 0.661087219035510 0.750102298837029
-0.088853560873620 0.947215323691879 0.308039243089847
0.007018575091613 0.958387740835472 0.285383387428146
-0.008757401900980 -0.183859708385537 0.982913483244751
-0.112212322186067 -0.044827157985934 0.992672615043104
-0.225270306328176 -0.199824751717537 0.953584478527117
-0.323841429082517 -0.148273496616797 0.934420515084521
-0.106508052361532 -0.327153043278880 0.938949903379046
-0.354893588572408 -0.367463127232181 0.859663533549577
-0.543642769058250 -0.563837923125337 0.621722877250294
-0.279864580331276 -0.558489931053985 0.780874390403036
-0.777523136623113 -0.253065656360727 0.575687020512423
-0.899351809609989 -0.362003057429914 0.245194023097285
0.679923481847451 0.588601997400657 0.437323390054084
0.695410379003431 0.628808953463109 0.347855867880554
0.718892535651463 0.451244123565470 0.528745934388379
0.696816676254691 0.481874191184503 0.531266207812661
0.472375817403448 0.577356324887784 0.665973543952383
0.407946190578886 0.591732391080506 0.695293235216856
0.344635610732953 0.659583182644228 0.667964311163130
0.319701973980656 0.658271830507940 0.681519511820900
0.425210004379906 0.647652637759666 0.632251937899906
0.341347733113358 0.709644995329431 0.616348688408001
0.535445819567363 0.606007480442683 0.588262448194125
0.569086267257468 0.533717705264104 0.625528761534256
0.611669804535764 0.601920199407585 0.513373279168592
0.637469276367363 0.540408351475587 0.549173684131995
0.421680016829035 0.555838053748115 0.716400740795661
0.444372781915412 0.507553149129435 0.738188750592659
0.784732365890564 0.619834224498137 0.000805024590532
0.620503123323335 0.719309417345714 -0.312361707102127
0.476975466377585 0.759705512064017 -0.441975043880799
0.426039645233688 0.782533673549826 -0.454016817364475
0.178039611612650 -0.246518956847528 0.952643847726748
0.135443077919157 -0.211745108420869 0.967894199643546
0.087423512130396 -0.168273575317930 0.981855963660917
0.156282434535972 -0.468000637861089 0.869799519209526
0.242050533215541 -0.164960934995592 0.956137766901534
0.133530254948729 -0.281120013580873 0.950337418487569
0.292090728176818 -0.350099056285161 0.890007672608150
0.290938973473388 -0.355943163921757 0.888064737376516
0.162468150565456 -0.436807955252301 0.884761499094611
0.088969243643030 -0.484315391698036 0.870358015445348
0.100990815114316 -0.345390806936844 0.933009134867425
0.098627317733715 -0.392014421161922 0.914656955255759
0.045841412842552 -0.291459415274818 0.955484156915362
0.072239369214262 -0.268516653108937 0.960562481329924
0.084622124254248 -0.320999752389765 0.943291182537189
0.032319614266462 -0.301067223285590 0.953055071649468
0.041172380631087 -0.333129288949914 0.941981800204703
0.061200087257945 -0.355760412720585 0.932571218760529
0.184748145699054 -0.077367804854613 0.979735854928633
0.126106064186812 -0.133369103333588 0.983010652460748
-0.098529877943921 0.993085216439470 -0.063824885755685
0.076747676763801 0.990577574400320 -0.113427788511180
0.002324970355995 0.990485147540380 -0.137600025489664
0.080206757986484 0.996216824368410 -0.033450184134312
-0.109763856984172 0.869484365927344 0.481610665483939
-0.049707344505557 -0.420711380811634 0.905831724967598
-0.191240273564288 -0.414223299823104 0.889857413100950
-0.138079577041450 -0.479030624064703 0.866870054628856
-0.155143652952537 -0.457331900133373 0.875658597895859
-0.020852414102818 0.682967927913330 0.730150659979060
-0.048640437971825 0.369290268849679 0.928040303611239
-0.069792861270054 0.356274194291659 0.931771246067171
-0.025491333781257 -0.289442279020542 0.956855976110014
-0.002478167606221 -0.190190326210808 0.981744110499850
-0.103796942602547 -0.357210721235428 0.928238490551232
-0.049149341576843 -0.416975080716736 0.907588080730369
-0.047822704164197 -0.371263407529430 0.927295244890245
-0.026888857804736 -0.597558097387629 0.801374637465170
0.015825799626451 -0.596414534489146 0.802520558687613
-0.045812908667686 -0.308971686634491 0.949967196411352
-0.089032097626953 0.397169948554500 0.913416289299332
-0.033611764696282 0.449592818154097 0.892601001085176
-0.006399366767583 -0.387306985238266 0.921928602056916
0.012279944051153 0.077810896563788 0.996892505413718
0.098096987518989 0.589487039414009 0.801799233850099
-0.035744494421715 -0.592138008548636 0.805043421158506
-0.030755338929273 -0.462320124344228 0.886179559544048
-0.009328731240171 -0.532696935308237 0.846254660186082
-0.012260707599838 -0.546660588678115 0.837264519632385
-0.006076802615660 -0.435734681376192 0.900054642738961
-0.032508828177715 -0.401918688910703 0.915098105994550
0.266463179873077 -0.530445602416143 0.804751412952661
0.177958424674454 -0.567883648937113 0.803641064379650
0.220016041347292 -0.450199635011301 0.865397729477931
0.377750747465395 -0.370361886649902 0.848608535018627
0.347431080915277 -0.505848194171882 0.789562694449965
0.632420007700922 -0.490510722363381 0.599536625325026
0.659296289098637 -0.454580404007205 0.598903213777829
0.622275671056765 -0.492292540756822 0.608622250271912
0.667756958768755 -0.421719672375291 0.613394784741100
0.652929211488783 -0.479043803493922 0.586686014081393
0.652166835001018 -0.516235624420683 0.555138901000230
0.624314673921014 -0.473508754701837 0.621305598838135
0.663080143250475 -0.473010208716197 0.580160379616869
-0.248888499897475 -0.462870544278513 0.850767520453207
-0.393743590044418 0.059465213627565 0.917294867350277
-0.434821725209324 -0.415814002348256 0.798767039090317
0.528547999635421 -0.133529120611144 0.838335843221682
0.305405265528643 0.368127289602597 0.878185585418723
0.307625021814143 -0.258115039961817 0.915829390279302
-0.203702421232039 0.656400017077730 0.726391314075658
0.266230193601085 0.956288238637085 0.120972264009197
0.060974885270999 0.862746279386685 0.501947129457497
0.131498392063353 0.617699277796218 0.775342359925461
0.357288229692913 0.661853179722806 0.659010993393673
0.293977150942603 0.398759937883857 0.868658705512431
0.280394649645486 0.001724906787310 0.959883255998749
0.304720236569670 -0.334230548943496 0.891871917697746
0.385367346823549 -0.496218284187379 0.777984204492811
0.237831044352896 -0.622000432109639 0.746024032318955
0.313908464416269 -0.575085585218164 0.755472068075387
0.171995234808863 -0.681597603662221 0.711225945733817
0.234411677100042 -0.691724450609407 0.683058160091994
0.247626724200484 -0.638775772379361 0.728454884040795
0.299505037907248 -0.650922467414288 0.697564816833155
0.315075107925954 -0.719698576403114 0.618677327440386
0.366009102400130 -0.608228970796418 0.704340014513006
0.321127712502469 -0.594833632599156 0.736919223383285
0.389796628927625 -0.552894220827490 0.736455408461519
0.424951884856009 -0.576256367437397 0.698100633537301
0.449668908440031 -0.608795021525129 0.653579753778044
0.377140039549317 -0.656923128420361 0.652853271352106
0.943605246715454 -0.141728546623921 0.299202535823042
0.976877145012229 -0.099405008320966 0.189287315669764
0.930697122764841 -0.209197870893809 0.300065187068982
0.776326276033374 0.332295272575836 0.535628009876168
0.853803733288284 0.220729553545401 0.471484516410282
0.801248798809345 0.197581770787896 0.564767037156827
0.814143211439770 -0.166482994022845 0.556286117000710
0.840807142939710 -0.182598475359995 0.509608815835997
0.780912724485605 -0.279160896567092 0.558788430950684
0.883143703418135 -0.285371993789761 0.372317101773956
0.829141662866772 -0.318111276326817 0.459705687121933
0.836409029946036 0.359212745064781 0.413988089693116
0.899810721702202 0.323547483386864 0.292673352226999
0.956897676151355 0.154364605641072 0.246004889994919
0.981439736159054 0.036364768724953 0.188291390890891
0.981668952026299 0.005777856456713 0.190506390975089
0.985425083461916 -0.052852617228762 0.161691081189242
0.823308883214097 0.115702293635418 0.555675680652177
0.852018272443497 0.117529584926172 0.510148664694402
0.822965523143857 -0.061524956468499 0.564749880432131
0.923785004554797 0.103246190459521 0.368729561488214
0.883819949120970 -0.006311447266842 0.467784633318800
0.962985813440440 0.037426596101452 0.266941141483873
0.929322913847505 -0.137170184506316 0.342845828734268
0.909742487123094 -0.263894214965575 0.320512792928442
0.838459839055020 -0.391789619196871 0.378795449525731
0.925866354403821 -0.145361047785101 0.348771643872886
0.893486526505144 -0.225045592559333 0.388633899992514
0.875325371413883 -0.188471372308709 0.445290956543269
0.214867676791836 0.243590158247032 0.945777836637793
0.148804687994614 0.439928764416675 0.885618341651551
0.253218979923375 0.549902677190936 0.795919087486163
0.300128841936174 0.431192133602133 0.850879557962049
0.431208745449774 0.600488880941160 0.673403387067266
0.786221384098562 0.071032153805267 0.613848815517246
0.567699872791750 0.664343557816362 0.486173314385034
0.466281980877289 0.684630548148858 0.560233992944507
0.691905048632121 0.203722806028954 0.692650288371463
0.765503460447870 -0.150353061145644 0.625618421281271
0.849723902234259 -0.308500153122287 0.427547594421146
0.863485883413118 -0.218076767770743 0.454790778825750
0.785624701642919 -0.437135016062081 0.437843357721546
0.782290828584329 -0.458126752993013 0.422067456344269
0.673476565808537 0.504445265414722 0.540337199818235
0.699070423530100 0.487921523828166 0.522717064510664
0.896147947274925 0.131388861250019 0.423858259013980
0.898521283233242 0.056863936002373 0.435230968979928
0.846817242492350 0.231615292128273 0.478805716622084
0.803899855173229 0.251034728471292 0.539190678659977
0.766949640169617 0.436941106172740 0.469968849159428
0.782734079772266 0.438379324264361 0.441758903046204
0.812638722187640 0.393100869363293 0.430220889435953
0.778743305066331 0.400222566302513 0.483094982624119
0.760008643857867 0.360604394717880 0.540695230024713
0.753714350388036 0.318459654770148 0.574889664459902
0.774303806849336 0.470336086465942 0.423364595197246
0.728365825413536 0.413293313829754 0.546508793262541
0.685439627515803 0.570027451863970 0.453035562790015
0.726417233439212 0.549389669221258 0.412903129457113
0.645848124822626 0.525298632204537 0.554023056079024
0.652819052387540 0.495333228178644 0.573125010710541
0.459997539906999 0.794776285406511 -0.395895086399083
0.488359572823847 0.764812877740130 -0.420197798273825
0.832489086171221 0.100039335733562 0.544934906857502
0.935154637337036 0.312157735823317 0.167461494776254
0.866415816594389 0.489759972031853 -0.097256375371678
0.779689297434985 -0.022190077623365 0.625773281564824
-0.507051975739156 0.748189184140662 -0.427914989961731
-0.531536430123107 0.753402409317778 -0.387109587954304
-0.559520131307233 0.727196385567981 -0.397646374909670
-0.602658161036909 0.717287850390038 -0.349715999946313
-0.858284784554667 0.400386470218842 0.320995176081581
-0.995363380866626 0.036520786502422 -0.088982988166299
-0.864373572976234 0.458289846162484 -0.206951064855113
-0.835281684097778 0.489868314844757 0.249666862682932
-0.761381059470164 0.550994470624276 -0.341619635884070
-0.931229220005385 0.218150971781732 -0.291928575714759
-0.983865511561473 0.133049822012712 -0.119609364274990
-0.998673878754726 0.051265536403639 -0.004725322236466
-0.886033517162230 0.431136121479940 -0.170488272970205
-0.873835724589104 0.464829131154747 -0.142635918554051
-0.737791488934418 0.622686124335075 -0.260625611589686
-0.799300342887356 0.560749925974260 -0.216052036278340
-0.714288653142909 0.200129758791174 0.670626423306952
-0.520974321948250 -0.046117996769485 0.852325575261315
-0.247286134329932 0.412179476906645 0.876902301619241
-0.452085636091118 0.853512509081975 0.259104176887757
-0.370162156899520 0.542070631958638 0.754413286977012
-0.304067104700620 0.821937736760240 0.481623870596585
-0.327010798721091 0.918917303944451 -0.220578616441519
-0.444239715661347 0.828244988676254 -0.341557189591726
-0.267947643902589 0.025226682366493 0.963103148486096
-0.468819875948883 0.410208552936202 0.782263936924911
-0.596301746586246 0.504335691736663 0.624555631676389
-0.592936688169806 0.316463891744142 0.740457081162962
-0.643794290770905 0.725833601063887 0.242269467200096
-0.701765529714165 0.711362738574808 0.038577136653027
-0.716179883542420 0.574732234295680 0.395940946696173
-0.478580568375200 0.105495706706379 0.871683024636933
-0.342449914117354 0.843699687366782 -0.413399194312483
-0.255900053287743 0.841979216135646 -0.474959116475232
-0.116208881114081 0.853515077283747 -0.507944395381555
0.255383951969078 0.714365809153669 0.651506352838466
0.232483164548903 0.694657062876149 0.680737205680437
0.041951750350140 0.870808476856024 0.489829202149333
-0.114202830470870 0.843376998456352 0.525045666573105
-0.129269768601110 0.924332869875163 0.359023777198893
0.034336978251703 0.923593136899230 0.381833326724085
-0.064664818250665 0.821462353274333 0.566584559826337
0.115243464950752 0.842992071281175 0.525436305886089
0.124664341136528 0.819829150248234 0.558872943031109
-0.017536425678485 0.813459266830310 0.581357458868739
0.035905293442298 0.840796070534596 0.540159955639444
0.078798699904775 0.837371391632543 0.540925057072323
0.149963237556691 0.863089971543145 0.482272462829019
-0.125800332172883 0.748287329968620 0.651337353629918
-0.032255467796317 0.748412257619386 0.662448999880213
0.154454523959426 0.746436940453317 0.647283318149910
-0.069220908538573 0.747150495653647 0.661040545402174
0.648370968759414 0.760398518097925 0.037539053590338
0.554245340839216 0.831225080893275 0.043323977795083
0.462948678624613 0.861615623163579 0.208079405228297
0.589351392728594 0.768121974910628 0.250306946664017
0.419057225525190 0.853986292400149 0.308380372474931
0.524373921263172 0.773894798998533 0.355132131441390
0.369118656368678 0.819492523566680 0.438387296050988
0.285495885935148 0.803775382002204 0.521955203443088
0.445798733966883 0.759252620551419 0.474129673168984
0.195192568013442 0.643301941031805 0.740312416522261
0.080551382903925 0.906569552196351 0.414298348708721
0.078264706563048 0.843640101154365 0.531174185584026
0.264273647014605 0.847896387271756 0.459598907684848
0.352060237894046 0.896848400454135 0.267799431472226
-0.067998976866652 0.902265966171096 0.425784294490094
0.110039973342799 0.729008828246449 0.675601459889967
-0.003463022361858 0.604804163265196 0.796366706720721
0.073268077484350 0.548677030648220 0.832817690050349
-0.243381026675415 0.740668528020312 0.626239417040037
-0.337274033662991 0.697846564482850 0.631867390087651
-0.336231532129810 0.646968650853170 0.684382876476954
-0.172730289964383 0.702543747841390 0.690359710077140
-0.247785798295346 0.672014452325424 0.697852974507452
-0.009368262859647 0.682895369678541 0.730456124433632
-0.102199919409708 0.663082371957220 0.741536880048616
0.398511759991415 0.578704022420444 0.711540604310775
0.289785833709977 0.537851272780333 0.791669235823642
0.183545262760922 0.636230611458673 0.749347546576985
0.197918818361867 0.468184432029251 0.861180282486594
0.678406184777151 0.331635513814831 0.655578320594026
0.608960120917171 0.451448214384027 0.652197884742060
0.506313471662341 0.469481482333597 0.723349020984391
0.573312182302649 0.450961415471102 0.684066475848418
0.483982255842596 0.518281197904594 0.705085651483627
0.414226297017011 0.588852331246338 0.694024139958638
0.249366637345551 0.590987077742359 0.767170485694359
0.303943162359868 0.500514200101124 0.810619571409311
0.206424763799347 0.528937454596532 0.823173120318761
0.271049086961616 0.645749593456764 0.713820604219084
0.262157038164491 0.801097513586090 0.538067338784845
0.100048664047773 0.581486157272108 0.807381021403880
0.234088555196099 0.602912750600950 0.762691788004171
-0.029610798989576 0.580811706791888 0.813499208258184
-0.048452435685919 0.547161972582562 0.835623202906466
0.011807439187453 0.985650139098990 0.168387611402904
0.111631598100916 0.988898580782279 -0.098071317071969
-0.026284756461765 0.997845389716114 -0.060113973417518
0.150510422436894 0.925859627514838 0.346598561560709
-0.249355577498962 0.835776390906233 0.489182604324715
-0.049275056020630 0.829175698434914 0.556812023917530
-0.730286056510882 -0.122380444149932 0.672090248817412
-0.799275274336092 0.123373593794384 0.588164936211963
-0.788063236710107 -0.245290581822958 0.564613908272676
-0.701153158517322 -0.381211955876151 0.602546009030234
-0.769332145189271 -0.288599825794197 0.569945778938694
-0.752004713174292 -0.338492807015237 0.565607223223499
-0.747332828187835 -0.305054296697743 0.590284270482466
-0.705550838551594 -0.412683566584911 0.576099199869172
-0.818602816220391 -0.244676442574710 0.519637246283433
-0.778950331602370 -0.338569685802188 0.527832311205335
-0.899712320763811 -0.053332963026928 0.433212805582390
-0.911007356548414 -0.096526663587033 0.400934158598923
-0.281810481114944 0.472777684171501 -0.834903655569429
-0.230523864042479 0.502628163159098 -0.833200862761337
0.655350038066458 0.666630950486781 -0.355133078520408
0.691042467290557 0.665936027192218 -0.281050735790577
0.700128840206267 0.697010057849984 -0.154908316004629
0.741498022913249 0.628134603517544 -0.235855044210636
0.874389312984146 0.426351389497386 0.231663164989087
0.894793552784790 0.415186651114554 0.164208838468137
0.837862381206448 0.468289173262224 0.280520730721356
0.844934045059038 0.493356124858760 0.206606373484748
-0.011266295679893 0.210989593901358 -0.977423379015968
0.027207283975070 0.163917182037928 -0.986098839433170
-0.226231501747921 0.260896759767750 -0.938483984071955
-0.322119170843474 0.239830867752065 -0.915816790984094
-0.454990965054678 0.003189663384414 -0.890490341197538
-0.367843437705016 0.071798465081866 -0.927111743938801
-0.393472529428982 -0.018956076880024 -0.919140922674036
-0.302837721985779 -0.021535475753100 -0.952798791679834
-0.368985844399822 -0.057653662185274 -0.927645137899821
-0.165008969194466 0.082052611989315 -0.982873038062959
-0.183184345553015 0.095548651843294 -0.978424218156543
-0.219004770297249 0.012602420231667 -0.975642398418270
-0.171732869082993 0.017719923953206 -0.984984175492995
-0.259029733136355 -0.087661139988625 -0.961883112382790
-0.198397850903626 -0.068030954146419 -0.977757680631940
-0.799437129501051 0.174769263015187 -0.574766022552001
-0.798327310843389 0.147346789055601 -0.583919881932931
-0.723065998882435 0.190256541210890 -0.664061751485972
-0.732158018509730 0.241314642066012 -0.636955162830524
-0.665299613496111 0.189276476560698 -0.722184768395660
-0.722069061924559 0.268415641333427 -0.637627879957387
-0.667208966629481 0.249453352298282 -0.701858404435232
-0.586743850718813 0.199620365564919 -0.784782366835154
-0.538242854957723 0.185067506340335 -0.822219342501701
-0.563904176747083 0.205435804319768 -0.799880122112485
-0.654362931870987 0.156900297528299 -0.739723901214999
-0.606261695383534 0.122990277904289 -0.785697237014175
-0.584627077779932 0.073118972567931 -0.808000492436179
-0.819458877808146 0.048767712448425 -0.571059417052168
-0.833208734187827 0.136794880124319 -0.535770814849868
-0.807996789159001 0.103110755050995 -0.580094268978378
-0.771415213945573 0.094662943223425 -0.629251535455882
-0.795760345944096 0.062100860532702 -0.602419251803950
-0.741905477312382 0.131822005320859 -0.657418604579361
-0.768014351754065 0.061845012275775 -0.637439526509293
-0.760426750435119 -0.052181259732746 -0.647323932320896
-0.497008085096004 -0.552217776832374 -0.669356773551679
-0.456207640073838 -0.536158950794204 -0.710216986998705
-0.513224136292866 -0.489342597056585 -0.705084965541287
-0.486472740940152 -0.562776916658373 -0.668301140503793
-0.464916989618535 -0.446752950218637 -0.764371633588651
-0.519754399821503 -0.248043385733929 -0.817514429634021
-0.747750630473291 0.037352894247749 -0.662928167992666
-0.694744525518315 0.448864608353323 -0.562005878643764
-0.605865935688289 -0.051219856747774 -0.793916238810677
-0.564020402942624 0.120555339678171 -0.816913333921978
-0.605048450016034 0.375575969690630 -0.702039218366138
-0.581754663005879 -0.490979926933886 -0.648459885743838
-0.582412743405172 -0.367478758043566 -0.725089483240531
0.096295914757989 0.276662602700104 0.956130169520932
-0.187208240169484 0.367339365463254 0.911051516322595
-0.247746025039944 0.254644810250143 0.934760893324906
-0.346931779792220 0.318746306403449 0.882065265342855
-0.231294877006988 0.287777604883127 0.929347475381546
-0.266889753652386 0.359277362177719 0.894253675654727
-0.308774255895621 0.330593315061590 0.891833234933916
-0.209255825883569 0.330338176619237 0.920374211069423
-0.114269738720886 0.458169899092228 0.881488950797727
-0.365984077589501 0.110399054236486 0.924049621922249
-0.253701772644117 0.350681265255261 0.901475490934835
-0.208343482605998 0.359453197479626 0.909607823227833
-0.327925011135944 0.019463136640585 0.944503241595073
-0.477313152202900 -0.109237797823916 0.871917001933506
-0.477538467256689 0.160424926303779 0.863840758074403
-0.659140138418462 0.188784839988666 0.727938570290203
-0.746360833616859 0.099977880429724 0.657989308019156
-0.496535093130635 0.194881584969073 0.845857002766835
-0.534184834411882 0.220416831962106 0.816126817885639
-0.311057562710122 0.195812401320924 0.930000374284748
-0.423305585271101 -0.139277157414504 0.895217434426311
-0.368246937489199 -0.677831707989387 0.636347679082761
-0.065053961444734 -0.394173870793069 0.916730572024494
-0.103474452121197 -0.420579884089405 0.901335453012673
-0.110677774476096 -0.496994415862483 0.860666590985457
-0.058262731605857 -0.482963347256450 0.873700096894048
-0.008922079308229 -0.453407617725642 0.891258620541297
-0.142073572237345 -0.435305701057931 0.889001713551882
-0.142252190005837 -0.526824720562442 0.837985696920209
-0.316912201735454 -0.314118778666650 0.894927957592207
-0.507832512007628 -0.337971590087032 0.792389641553993
-0.534420795970684 -0.028334537219990 0.844743491738521
-0.287583826054739 -0.021162709047334 0.957521635649814
-0.266913397196718 0.011349139362431 0.963653690613303
-0.245067970507901 -0.080000026183380 0.966199609626187
-0.218502374438771 -0.430799923497817 0.875595876120311
-0.318964577374974 -0.658707905008363 0.681443683850322
-0.369395131281052 -0.619090716713967 0.693017980621312
-0.417373031646486 -0.617629730054079 0.666583279873975
-0.364247298293482 -0.659048686919121 0.658011195920010
-0.449092431957314 -0.406618932888320 0.795598536307998
-0.421238378614993 -0.453811483709704 0.785247327684092
-0.181171027064467 -0.973252618586665 -0.141267120614125
-0.120217795871807 -0.976189640938065 -0.180558761850361
0.011761072088163 -0.961542693107860 -0.274403583275110
0.011980607493240 -0.965719362038401 -0.259311740629377
-0.016501092173036 -0.968108761322785 -0.249986280037844
-0.014895951971966 -0.963536537967858 -0.267161843487733
0.036960524941826 -0.956899109631366 -0.288059045306208
0.016094761584520 -0.966041893034964 -0.257883732621818
0.025128789569681 -0.962004209440478 -0.271875789568625
0.044220401228304 -0.957582043846174 -0.284747581936340
0.073057426879266 -0.647599042730019 0.758470890827686
0.031549647156411 -0.670934326086486 0.740845294135813
0.136094081501381 -0.677873455324791 0.722472130636417
0.051730285104351 -0.552953265611059 0.831604872312018
0.016634827143743 -0.569211412817334 0.822022901167839
0.080916282942941 -0.479392966087869 0.873862082493669
0.098335011945236 -0.994217284753984 -0.043153402208236
-0.014475264359257 -0.995932722504662 -0.088929629292950
-0.220186346812714 -0.881442276755144 -0.417824706576788
-0.189045618205708 -0.900756658684169 -0.391023267943679
-0.167928065738016 -0.890920895227075 -0.421971708986843
-0.099485567280299 -0.957043854494290 -0.272341114188860
-0.106389101857523 -0.948124109292726 -0.299569745441400
-0.353500043227061 -0.677151002185463 0.645371396699365
-0.017386241326958 -0.817858619901746 0.575156497368266
-0.298148148294696 -0.542151274126963 0.785607839593620
-0.010591468133403 -0.468057063072824 0.883634769862765
-0.162720147807925 -0.344839090721610 0.924450190658026
-0.141028916255244 0.599108688710683 0.788149493364829
-0.164059788836995 0.846184875339449 0.507006452063011
-0.315357476924307 0.566293737967338 0.761486089227449
-0.504222249645609 0.371146346337873 0.779750160347767
-0.445756019162835 0.354233832854788 0.822082698419756
-0.447738063515102 0.510969535574874 0.733785227566040
-0.670343639221921 0.438281618752995 0.598789301856642
-0.494298837271765 0.655106423496960 0.571405489442308
-0.303798547962121 0.621595479691385 0.722028740344415
-0.147292002173118 0.537334285067453 0.830407690346665
-0.320984397095303 0.772864780607625 0.547402089617579
-0.426431125460262 0.661135673878148 0.617297429092639
-0.198648839281703 0.677608916830509 0.708085301700167
-0.252071515819137 0.667554849242077 0.700592944701865
-0.169628267065306 0.702156571085785 0.691521800591619
0.053658775793248 0.367623799961074 0.928425267580838
0.041263956957467 0.349446068615503 0.936047397830570
-0.008881508715287 0.408452956114924 0.912736162011739
-0.087826058066371 0.396607131557054 0.913777525835806
0.042105519384815 0.339384814073838 0.939704779818322
-0.443975590948829 0.410154142443685 0.796655040828792
-0.060885653049622 0.841954296263621 0.536102509093133
-0.249082226730934 0.675859055165546 0.693666044921830
-0.116019875316859 0.491633831673404 0.863038564657216
0.003833138884609 0.378469687390317 0.925605749103239
-0.039516023547026 0.723785036555805 0.688893101098380
0.304267227277133 0.732950941954564 0.608444221842071
0.089143980094692 0.722515468243313 0.685583509838170
0.112352213328234 0.424183512490163 0.898579616890877
0.074985748546014 0.832530048176595 0.548881459331676
-0.039851996099351 0.646888292263118 0.761542747151993
0.001548081241408 0.809279157294961 0.587422206775015
0.197233902826597 0.304409940957539 0.931897727984147
-0.276972689623000 0.299802091011351 0.912910091645515
-0.287620327546137 0.369669790983170 0.883526339628147
-0.122131568210203 0.306797172598473 0.943906443950935
-0.239978051581473 0.560980947010205 0.792282091082900
0.318220386273952 0.561700959569264 0.763693536556795
0.127245832333887 0.678729777619412 0.723280296376418
0.169210085415448 0.680947809631205 0.712515282328850
0.022131521619278 0.778014858896833 0.627855934977568
0.151536958857122 0.653051253162972 0.741997716197703
0.155782353905438 0.620939449301774 0.768222662066468
0.172746246471713 0.677079418870509 0.715347604226021
0.075360798400973 0.669073738575531 0.739365324053630
0.095488678820756 0.636281160343368 0.765524785496305
0.207720680620636 0.638303847540661 0.741228923516405
0.248318144017761 0.659509600266343 0.709496431638738
0.101986486446888 0.704442866379270 0.702395191177714
0.034985549085914 0.696382661740567 0.716817410350977
0.120191620109982 0.731143078499873 0.671553254192895
-0.004670918714596 0.754397602653184 0.656401127078169
0.131383479422428 0.749896951110887 0.648377161881456
0.361758002042691 0.729468427343270 0.580523006837297
0.419133518658780 0.110837740381669 0.901133779659711
0.348691698190658 -0.011198978463916 0.937170572785061
0.247256203142337 -0.027593439663908 0.968557159952447
-0.120150057635674 0.220742975641989 0.967903147197520
-0.132197707680190 0.085298344076752 0.987546433633309
0.565320945984988 -0.227830914956947 0.792783263080471
0.531616183137787 -0.255661834724166 0.807478334131315
0.525246058275017 -0.175840815206714 0.832584281603969
-0.182625827874748 -0.043234261439674 0.982231441988511
-0.032308373914446 -0.467425654738293 0.883441806950227
-0.173518510204338 -0.234652745790453 0.956467153387647
-0.026655245358590 0.208601039791984 0.977637511602627
-0.096498173420943 0.316168342598724 0.943782645350505
0.122499986471488 0.115491169798093 0.985725896491085
-0.107927258637107 -0.525664850170994 0.843817617816662
-0.073968073876844 -0.208699204892404 0.975178632827970
-0.018370582880378 0.310646386658360 0.950348012120160
0.206150554987282 0.125780859501295 0.970402557736505
0.536922188908346 -0.072265626841237 0.840530928779610
0.425793280009850 0.229349002288204 0.875270882554572
0.292308039281121 -0.031197609590619 0.955815211914656
-0.020780059614353 -0.139307846545245 0.990031066691016
0.151487253808107 -0.200886597549862 0.967830660218263
-0.090314943663958 -0.186809360506533 0.978235898839394
0.095011689083536 -0.207566247652485 0.973595928387625
-0.042885082132964 0.373472815020345 0.926649300529185
0.004843694087463 0.574646096512447 0.818387684652326
-0.051789885249691 0.552394103251593 0.831972693349182
0.412937346342597 -0.095039686431478 0.905787064380222
0.463736105889480 -0.224973784918966 0.856933848201654
0.034020099380183 0.240368218808318 0.970085435528788
-0.108684773220571 0.158636151377196 0.981336940885354
0.358898479962055 0.049459226534763 0.932065269169230
-0.248785969677636 0.056787956220328 0.966892273896051
-0.106509846627623 -0.018811539604020 0.994133682433649
0.462880327910578 -0.004336038584472 0.886410176387202
0.108568082093262 0.041060498729256 0.993240659153005
-0.050012764386046 0.035071294266852 0.998132620304994
-0.189284976850063 0.316767780467733 0.929424214660032
0.019627167111391 0.007021813860629 0.999782710613305
-0.049453300910057 -0.011451409836472 0.998710787085959
0.032141980191777 0.225468828640423 0.973720031847382
-0.003693360725522 0.064527757522838 0.997909077820031
0.157494147253291 -0.574326007364900 0.803333822794268
0.112979757140886 -0.603231181909338 0.789523727096691
0.192060566945098 -0.636285168427032 0.747163919809108
0.132425593050544 -0.726873700521794 0.673882842781269
0.090043054502436 -0.817553120066942 0.568769851701618
0.205642820039972 -0.692665347569572 0.691321739020502
0.176813819882219 -0.698640746748775 0.693280592603725
0.246567855082478 -0.489595256271839 0.836361631040149
0.233278464545817 -0.563777706796459 0.792297832445900
0.249274874224463 -0.649173204744769 0.718634947189311
0.197203790051671 -0.485193240630061 0.851879207655731
0.145958394977552 -0.509220131164326 0.848169207736619
0.144547633151051 -0.403748163151822 0.903378880925362
0.089374820657140 -0.364688496927928 0.926830319767838
-0.117617689427557 -0.631537294587112 0.766372445146167
-0.162408624874985 -0.633828104895707 0.756231030843441
0.229301321911597 -0.446343779250031 0.864984470666609
0.259653701982578 -0.155385779947213 0.953118678044313
0.176159714803615 -0.478036479631256 0.860493392782342
0.180187876499808 -0.391453392038500 0.902383826885235
0.251750469352955 -0.257034508667773 0.933035349027294
0.145010089446419 -0.401057087086085 0.904502784327813
0.309731280523792 -0.386684717247441 0.868643461560817
0.248586070741948 -0.382655931474828 0.889819871401067
0.307118939945468 -0.435056298632302 0.846406506205578
0.227004351473692 -0.305724428596201 0.924662964637135
0.190103762444865 -0.299789921732814 0.934872484530238
0.676455942534676 -0.165343427870352 0.717683014059553
0.692763483258273 -0.224873667022058 0.685208428249330
0.662871462768650 -0.136425324016552 0.736199398813887
0.654387006938282 -0.150815389440809 0.740967181093855
0.603018269297820 -0.297307235700012 0.740254938851122
0.568991975351805 -0.388435647297239 0.724821274449106
0.624387205704548 -0.291292259875733 0.724768540079490
0.608516243460235 -0.260016483268986 0.749732892351318
0.536567184259888 -0.010434790121724 0.843793085969855
0.509755781363197 -0.047433364608408 0.859010546669086
0.530410560277849 0.174819875296427 0.829519528852142
0.554023257104642 0.138948492795789 0.820823700277315
0.551989990417787 0.113403106956677 0.826103374772881
0.555953111538218 0.088051292814686 0.826536815637777
0.576037111609350 0.017557088918523 0.817234969074051
0.590194721418227 -0.022352306210301 0.806951402016963
0.571746740705586 -0.016037114251515 0.820273415062943
0.572494134464075 -0.051132141737665 0.818312880312628
0.333381668296547 -0.147083049609980 0.931248215977480
0.643532891664580 -0.013011643333138 0.765307856018476
0.558063911964518 -0.231948813707399 0.796721041508625
0.591004910536542 -0.063544805134208 0.804161211115128
0.477968747303216 -0.434225392849448 0.763540558717176
0.424989821564636 -0.481705057367041 0.766383643662542
0.385862814252041 -0.326544266144032 0.862831809118063
0.482230524818980 -0.234142875241894 0.844174647159147
0.407071588263067 -0.293797189846823 0.864856018807231
0.484146704057229 -0.098404911455841 0.869435703403012
0.489307831870797 -0.133213696665123 0.861876996264961
0.551938548956835 -0.102613674096945 0.827547141898121
0.512020021745601 -0.104189663047377 0.852631228284367
0.608450696707458 -0.079875277399984 0.789561707364589
0.583599190735136 -0.101541550031707 0.805668230843473
0.631656051606983 -0.131342592982849 0.764041723819333
0.608240033424704 -0.179590542632973 0.773169644215491
0.412030305033394 -0.490634967865026 0.767794475131316
0.366810974885823 -0.461084506755579 0.807991823184663
-0.517608177673378 0.479064954955896 0.708927741972868
-0.524827129598096 0.429981061691137 0.734624237705771
-0.475129306746608 0.573021287842312 0.667756501690568
-0.471872151135862 0.623889413263253 0.622975660038535
-0.504233930884522 0.558114392373486 0.658981386664538
-0.284531280573579 0.813887801855335 0.506585231097641
-0.314842491698997 0.804163886861629 0.504177199492761
-0.282227212675004 0.800912713225710 0.528097174977418
-0.327891559487902 0.799217021197600 0.503725399642133
-0.256434953886461 0.721691424326435 0.642963920044453
-0.213189776329318 0.750562657685246 0.625464480332109
-0.127977497539502 0.748310847698075 0.650886038674141
-0.163857875770596 0.781597030007000 0.601877628120687
0.288712152205226 0.788390155496052 0.543218423735737
0.210886782007461 0.796183824509563 0.567113818173974
0.291493801528682 0.784341289823041 0.547576574324619
0.215792487737677 0.514576067142699 0.829846415525148
0.105756013099023 0.612205841057020 0.783594074677104
0.173980058045694 0.655857485962563 0.734562385035664
0.104213313060410 0.429121602996390 0.897214709655823
-0.179555737800832 0.010772337219976 0.983688819583520
-0.323897478994264 -0.223945274200910 0.919205601192812
-0.292160715363202 0.099106201024012 0.951220309558753
0.003227712310825 0.331872593773092 0.943318696610832
-0.055712289706532 0.114974113755426 0.991804967693654
-0.103782795078628 0.316138587245241 0.943019366238176
-0.204144339710543 0.318683061191767 0.925616656653061
-0.118788026873663 0.464932688304442 0.877340868771920
-0.003949865276027 0.514865785094844 0.857261699776078
0.168116644750340 0.780106720357126 0.602636124549082
0.130544016927829 0.728749862361237 0.672221613571614
0.101092052080320 0.788311632761845 0.606914464038009
0.127350636953404 0.808289692227863 0.574847448203216
0.116871366024211 0.792293489380062 0.598842308533390
0.183933705433447 0.782403631197426 0.594989873774843
0.153480184760599 0.760063055455595 0.631464951218480
0.001642237106679 0.790780758033814 0.612097292740910
-0.065689885501470 0.803263601764699 0.591990223756107
-0.039883770658107 0.812995589945706 0.580902277123206
-0.156844405270109 0.796154886398365 0.584411866237736
0.021262650297142 0.809005378932391 0.587416544336981
-0.060712937274300 0.743258658671293 0.666243578248734
-0.139952424026119 0.726381417255076 0.672891786007022
-0.249141590754352 0.694572392586546 0.674905666899450
-0.432561740211572 -0.433076755451545 0.790781173772302
-0.537855269011777 -0.428070590051740 0.726269426266192
-0.285361620966100 -0.506938207014071 0.813377157012021
-0.387513873463246 0.018321722839596 0.921681784753122
-0.393570595768582 -0.191924769800634 0.899036745012870
-0.308912628284722 0.294638156190188 0.904301578569379
-0.232362429695509 0.476840541295932 0.847720944322247
-0.479424043115839 0.213060387025918 0.851327115956509
-0.521386686182136 0.299970588230803 0.798857665462676
-0.405047816396114 0.391253592285128 0.826351555306047
-0.450133880272591 0.457939924749053 0.766596709588277
-0.324401471874504 0.408733334241581 0.853053777041879
-0.389097870134022 0.236733488349216 0.890258447278755
-0.300754923172748 0.551036246843121 0.778399338933687
-0.364684294584882 0.566037933448414 0.739328359513265
-0.434492121707740 0.610649997637967 0.662059798325391
-0.335118355333582 0.726970477967822 0.599340981480285
-0.113733451376104 0.620120123189740 0.776218870456794
-0.204986227945882 0.617046284394627 0.759759520682238
0.056832385094159 0.649698390042117 0.758064695115918
-0.011795933616598 0.676150261617916 0.736669315001064
0.048108202638757 0.737293685967999 0.673857270844940
0.054191613805062 0.799866229867832 0.597726763086800
0.066173144385577 0.814013009649800 0.577064931427131
0.069057172771703 0.791926462865472 0.606698923933578
0.926231579086084 -0.212489040032514 0.311357463006366
0.923780839864807 -0.202881790550505 0.324758277741605
0.907778231063682 -0.337950553510816 0.248451416958375
0.883009305166199 -0.407430761584007 0.233012320500404
0.859452963873003 -0.442461983660627 0.256062484376400
0.877384542991640 -0.348316790164560 0.329957235727311
0.850426554796428 -0.394283937445480 0.348302815908180
0.853202923425488 -0.451627022565733 0.260917235817436
0.861691296603799 -0.303435107754634 0.406712729994032
0.807111687840454 -0.525862148024711 0.268402169563082
0.755093688890982 -0.533384870146469 0.381227099372333
0.540760418033100 -0.807309803829731 0.236281719413645
0.553909208316234 -0.797457387919413 0.239261997390373
0.555543877384162 -0.802405591152670 0.217982264388427
0.563967403824078 -0.793069352945570 0.230177689714759
0.833546617825028 -0.379148846803667 0.401803668325596
0.805473890926627 -0.479193831117324 0.348690526476733
0.579248574097934 -0.702708658688231 0.413124231206665
0.565701476841241 -0.749985560078927 0.342787833466617
0.652974017575923 -0.633327131722149 0.415357287880390
0.610106592061889 -0.699606683707981 0.371914552597433
0.598580013822489 -0.738275822579583 0.310887080540040
0.732049135823638 -0.609440009229184 0.304445295399021
0.679576662621755 -0.667926067061020 0.303397970593534
0.657197550282531 -0.664294559540021 0.356095658592140
0.635239492177552 -0.726383530219649 0.262369500139874
0.633480830256534 -0.730299769916197 0.255664396734941
0.659662060744781 -0.720363048406145 0.214296626443243
0.706040938094701 -0.657773708675470 0.262373668476225
0.690661026931544 -0.672325713597608 0.266393469727267
0.634520133535793 -0.751022238704554 0.182619268175403
0.602669425953159 -0.781460661266222 0.161582170782078
0.708172926489560 -0.704589476687540 0.045219194247467
0.695814483079927 -0.707814344081591 0.121823887019588
0.720800793095121 -0.679312530925361 0.137770468538160
0.698683318285979 -0.709053704005923 0.095312462901629
0.848121632585870 0.036412329300798 0.528548804383066
0.898044734542217 0.006940063879474 0.439849394991454
0.885504059958952 -0.166708522985081 0.433694394891548
0.896987575662925 -0.116431882312485 0.426446838289979
0.858771527251175 -0.321331167781538 0.399071102179596
0.855727364728162 -0.363049687545704 0.368680894037597
0.849352070917947 -0.422124596370242 0.316878343795618
0.872925820523153 -0.263576026996053 0.410521850644952
0.855040286521876 -0.327033425745883 0.402436637086512
0.882218089586277 -0.390184690639104 0.263528270964630
0.853527094107706 -0.466893975769783 0.231303945089443
0.845761809441476 -0.482941547189368 0.226835675520011
0.841387501406227 -0.127327513011688 0.525218789560736
0.842564479246214 -0.271170534779614 0.465351092595573
0.842126896856026 -0.148288596615278 0.518490869452405
0.823904804517366 -0.226544482601639 0.519479037590505
0.827889534746248 -0.367683827364794 0.423565250406614
0.817383646054554 -0.417411777841647 0.397053375356059
0.859479676761881 -0.197728262800831 0.471379061184369
0.848499794722952 -0.301170279196877 0.435137405061417
0.897525839720969 -0.270661886094534 0.348122838160497
0.891319157160281 -0.342361465716138 0.297218416104695
0.869213043269081 -0.195999833016666 0.453930337021378
0.876077793855973 -0.264163080777420 0.403367779906420
-0.191749652081932 -0.940862375558193 -0.279302812705943
-0.118228927326589 -0.971235591977338 -0.206696264164676
0.183605962352609 -0.981812570511999 0.048300382743759
0.746922640888349 0.286986478365900 0.599787737256700
0.749941606542893 0.237878985129905 0.617252926448657
0.865986052709174 0.149046521934215 0.477339806440335
0.846865700463923 0.153383696548030 0.509207155302251
0.848449202342405 0.068894555524748 0.524773752452983
0.848553298079922 0.047347652441400 0.526987191614726
0.832104043627364 0.265646483206490 0.486862204878355
0.850131640695769 0.212293870339749 0.481879140557142
0.838384355146508 0.201369650187880 0.506519434008987
0.834095293444942 0.199015541530067 0.514468517678672
0.810924152200080 0.196625998653248 0.551126334003552
0.814057784836410 0.204757379400733 0.543492721688324
0.833409813924955 0.139931570606692 0.534646834462823
0.811818545321047 0.120361833343632 0.571370001441253
0.827469593327898 -0.073384644640168 0.556694499747212
0.826650265855755 -0.121729964058899 0.549391621533154
0.829640832231034 0.068767338773985 0.554046155670212
0.825129508713135 0.031575098520974 0.564060552604249
0.788887874046003 0.055610347920432 0.612015858771116
0.815383405760483 0.122267371982561 0.565862696560671
0.813346896467416 0.121884315779637 0.568868209318953
0.679266631351079 0.294077419874486 0.672395207190624
0.621963975936979 0.320680751104782 0.714370120111093
0.666180015151992 0.287944952300075 0.687962129667759
0.678632297029593 0.420629210638593 0.602104038008293
0.642527204218104 0.401613462985982 0.652583648422234
0.693934130499555 0.356848125840027 0.625391747317062
0.719299717493976 0.287453663755013 0.632438382458644
0.727119217318081 0.239256289536882 0.643470334765936
0.675906049505064 0.241911758030492 0.696153512933070
0.715769975353793 0.234076643127870 0.657937282363614
0.745668327963390 0.150227245104958 0.649161397112041
0.779083746657720 0.145772480677065 0.609736746121656
0.739438147014649 0.052341150796750 0.671186733087606
0.774720117252164 0.000991633352941 0.632303532006651
0.570674894164333 0.336375383948479 0.749120662005822
0.574481838586849 0.284848622485562 0.767353816307674
0.614949581549644 0.305772495962898 0.726870134800253
0.587153517463781 0.322293880828748 0.742547911794420
0.593923734686389 0.351946468427644 0.723455790451276
0.592574633889237 0.373769716399548 0.713548528394277
0.582621965750674 0.465994422537143 0.665883505719353
0.598396758079523 0.473730632971083 0.646142869112346
0.697114424343684 0.511785567273353 0.502102591611183
0.752411424962678 0.474837218645521 0.456515786555754
0.755666847038682 0.447011465359299 0.478694439203078
0.724839782772466 0.497365128585645 0.476691953128380
0.726701267431022 0.508304422000221 0.462095101130891
0.698233317026805 0.544519563897729 0.464724304858669
0.667027150021073 0.626041101471928 0.403914991554634
0.683353612972783 0.588674771410705 0.431844709521372
0.654019364068038 0.658083649622644 0.373074498623774
0.650225961993485 0.630723417338334 0.423549488455246
0.675080387264732 0.600786902848005 0.428160680232084
0.667417902003718 0.577106152227317 0.470639812538566
0.664678417368027 0.554008773272284 0.501275254348819
0.651462057034583 0.581561905657276 0.487219599495491
0.641183396719180 0.618489919107422 0.454262117872655
0.671453749177090 0.522885107895657 0.525110489951379
0.675499480218242 0.500776719777249 0.541223732992210
0.667847848615588 0.547198820981845 0.504532160932888
0.686323843506953 0.507779422979588 0.520691501210035
0.569977763992621 0.664451287831364 0.483352702126733
0.623074780282025 0.575802930911794 0.529366416511185
-0.256469917664169 -0.947593235330999 -0.190499978184420
-0.289617712450266 -0.939205775006306 -0.184429099737217
0.143969768396936 -0.814751788609483 0.561651340909448
0.018481659584533 -0.785442470316959 0.618658673325926
0.122829852673017 -0.752812365154200 0.646673310229565
-0.626606979587776 -0.490387045747984 0.605709698200755
-0.681224508086853 -0.463381428669009 0.566754639280961
-0.623374281473911 -0.506407889083070 0.595781465867574
-0.522492114143633 -0.536176304056518 0.662960754212502
-0.551229179224510 -0.526730743735777 0.647071182772829
-0.533300099415610 -0.525953140970073 0.662543807960662
-0.463765312058204 -0.525547307934920 0.713247336100118
-0.363177534890033 -0.545920763049849 0.755031521608383
-0.900634090388753 -0.327074088122828 0.286148171596891
-0.919975635428799 -0.239344750571000 0.310417332943060
-0.760191614604677 -0.504066349310384 0.409909532186842
-0.780815414934133 -0.510258385884728 0.360504739823972
-0.799396225717245 -0.489948644315440 0.347729780494116
-0.803174096693293 -0.515273434950270 0.299006116384701
-0.938829796025851 -0.079112154044583 0.335171420584281
-0.910554752531022 -0.191749778727613 0.366226794488170
-0.848730745934274 -0.526137176211552 0.053252161589790
-0.872520750740068 -0.488535351124841 0.006383590628830
-0.878196046249384 -0.477968969185871 -0.017814849068837
-0.867058878662371 0.394965084811660 0.303663436574887
-0.884580366333238 0.414226777859338 0.214321608807943
-0.905862649686717 0.329558085307011 0.266090827183758
-0.847949524964062 0.415662161635023 0.328947671367533
-0.915530559851724 0.357046406512927 0.185261052501044
-0.936373725399917 0.306569216406867 0.170937304098201
-0.939785453766994 0.320040899845102 0.119904642588610
-0.911225065689134 0.392751307503622 0.124158326801021
-0.938192801564111 0.335922304569166 0.083369493138831
-0.919505961666121 0.386861710306880 0.069618988493785
-0.901355058638516 0.424325059655506 0.086644688325992
-0.906282826579280 0.406884645336723 0.114439170027925
-0.908229394301097 0.413255040640754 0.065875934243625
-0.938773771030045 0.174834819948393 0.296878076926608
-0.930682090148374 0.276615218564924 0.239405237902877
-0.883578716673276 0.103128126453958 0.456785771424749
-0.885517186197104 0.203300029541785 0.417765976280828
-0.877292626809685 0.317894451582649 0.359584155099095
-0.907347539722301 0.225676813821906 0.354669448730900
-0.822328624596740 0.360650368991101 0.440121511080084
-0.812739739279342 0.287564800901334 0.506715503491578
-0.839994079793550 0.222919258028962 0.494688740837715
-0.738358304908751 0.454790243736638 0.497988802860312
-0.797497776815405 0.466235455476926 0.382912256307773
-0.759521029598410 0.419336862790843 0.497276986298889
-0.783309521399012 0.384557488444152 0.488407342048803
-0.535769066403799 0.567846535129962 0.624901448250601
-0.582636046657984 0.569968060436394 0.579371769434040
-0.712282713741930 0.333892542865849 0.617388941853520
-0.662544218872594 -0.027677343281658 0.748511270928750
