# .PCD v.7 - Point Cloud Data file format
VERSION .5
FIELDS x y z
SIZE 4 4 4
TYPE F F F
COUNT 1 1 1
WIDTH 724
HEIGHT 1
POINTS 724
DATA ascii
0.338827385240886 0.311055508358448 0.499613255069323
0.340142346578775 0.312835282037386 0.496852628067702
0.339442960548514 0.311639775062792 0.498579584215588
0.339358186484239 0.311025163096805 0.499277040901401
0.340142346578775 0.312835282037386 0.496852628067702
0.342999617881470 0.312296774060917 0.495432686346106
0.341504511656999 0.312998086774458 0.495739700772397
0.341371570510751 0.313862204225070 0.494933787903384
0.376259489613158 0.503869089943187 0.720434105217667
0.366970575663397 0.519633615080405 0.755617307610314
0.359857890751296 0.543720027381377 0.737178440695327
0.415575617909383 0.471745843591830 0.732164389544400
0.393248573214713 0.601083133821128 0.767677027482019
0.367222830608598 0.592975493272348 0.726074196604877
0.440911151918730 0.785359260977521 0.759962036794923
0.462337829311119 0.756976375224194 0.734069977780861
0.429062459063176 0.838628814239210 0.722627003655440
0.483781279363820 0.357202279360199 0.585791249244273
0.503025506851099 0.372872766813534 0.624430202931295
0.446589636385928 0.353263788613401 0.615534232649937
0.640767855306950 0.439086952276359 0.558716746076789
0.684382472092206 0.404167212286107 0.536434699017262
0.685557913903639 0.437323752350598 0.524375721989716
0.718230514788873 0.426195088492333 0.483969817891878
0.668837326857490 0.457146152280771 0.559880298087574
0.635488306634537 0.347609302142608 0.531105952745436
0.639858578578215 0.378009342318509 0.566789393219488
0.607251102608252 0.342249668425732 0.548501596256579
0.719573227167002 0.405166025043188 0.296546697519380
0.737224956242892 0.424121847135970 0.277262960397124
0.732990771954217 0.462309708062631 0.292312077420728
0.739608908275672 0.469978839741875 0.259670073452521
0.545492226083767 0.450708920880251 0.244660476027052
0.608608864261332 0.484774275557137 0.222399756337876
0.591613856836836 0.436176978539127 0.214768717958659
0.534217400845686 0.416766729520420 0.246739678501130
0.496845968736922 0.454939807164554 0.232029766829787
0.522983287570022 0.493658334544627 0.238112116031203
0.530775105895358 0.472908422348093 0.738575001633653
0.540921685174363 0.489128239888380 0.722266376457870
0.533807003057982 0.521211245357167 0.763812576033388
0.525547298847433 0.432185934937507 0.754115462129418
0.484241133655276 0.454411186340066 0.708370865370228
0.752216343944132 0.504559708352330 0.470146247570726
0.748743346481317 0.557628527980032 0.469751972368279
0.737724296228166 0.543173063808463 0.513056632723352
0.544351314297075 0.545998349562635 0.750822247020912
0.550546915813588 0.531015542522534 0.702980507118792
0.562227725149840 0.552742706124877 0.782378919316618
0.568068084116649 0.589960356605300 0.769760465232063
0.550220395526882 0.568202053612499 0.805631579409563
0.557389136493011 0.567624340698140 0.757028658764747
0.544944606723554 0.535798299248671 0.811635393691754
0.541501968745153 0.506992011764975 0.804418271770069
0.664538285604367 0.330960004663682 0.437453520607959
0.638201426889281 0.324580182206178 0.477380045982873
0.604081439798736 0.306319512074638 0.482337930832288
0.532081823327790 0.265445732807118 0.469140423665838
0.527972463524683 0.302909509271183 0.466710817948027
0.514596627401678 0.289394551551854 0.479917956649265
0.545384675766057 0.291155014418766 0.452417412267033
0.657448628801519 0.365034204947630 0.301396849111888
0.651600409422466 0.349169754729207 0.315671401962144
0.616444977095684 0.339168514683045 0.295364492102640
0.695647336011792 0.374970537399694 0.341704026945294
0.679511039276785 0.353407575072635 0.367937162963255
0.626224515322070 0.355413848944811 0.269067597254322
0.640392776270485 0.332574093528478 0.346392142905999
0.663593484414424 0.326995727583984 0.377910583772475
0.606651599157271 0.302591325726462 0.372123036749951
0.645592422331866 0.314791062042545 0.398879248475125
0.616280527631347 0.291916548529799 0.406311959279181
0.574843958528654 0.310241182121117 0.492100565648859
0.600131157102988 0.324843698840993 0.502699043989307
0.645925878243683 0.327737619892339 0.499869954618784
0.603569444567450 0.301690445936676 0.456152327864139
0.361939826451994 0.469791013240334 0.712125007166088
0.338259820094886 0.500475694536229 0.687234160820776
0.455644474589648 0.369165772586847 0.661294128009223
0.408039887503710 0.362399115966983 0.638655011711013
0.445271001608919 0.444464093184858 0.726841404614919
0.434794365304664 0.428121039979534 0.711859841398588
0.417285161725242 0.445323209383694 0.772231159380739
0.392025817613384 0.429469669877351 0.708843044378476
0.402697896681891 0.385621519052721 0.679457240951947
0.405749733513090 0.356538190732844 0.588815638519433
0.369976868239091 0.376200751685873 0.623012509858642
0.371319743272652 0.374866488697386 0.570064167716665
0.388257066933723 0.387772153075112 0.506242216353494
0.339399207631894 0.402176426880865 0.553310720815272
0.325902114129919 0.513866204204392 0.517590950938540
0.374726849850325 0.539527717577690 0.488120179619092
0.355404122077425 0.492816213068647 0.485740231076075
0.391493241678766 0.590727989935143 0.523883479393662
0.471149109479611 0.633398782670912 0.499476721135418
0.401711638867758 0.587540159407844 0.500369123879873
0.448185491391762 0.611598177898940 0.471992450001465
0.413199136963180 0.586749211159603 0.462615019947313
0.388725264714702 0.572659591165134 0.778086268919904
0.402540617044347 0.535254585133437 0.797744470124202
0.383963902243772 0.756386353171997 0.700126646019495
0.417746962989682 0.735773662969414 0.736830191229061
0.391595628145484 0.797454770755266 0.701488937038425
0.427306026352351 0.657136303020739 0.749992346839488
0.418279291989958 0.696500997634058 0.744012473776894
0.430056658741828 0.657383838164411 0.723938534092502
0.433773614981329 0.681782968159083 0.761390955337943
0.448745966327564 0.667528545297891 0.775930339893642
0.414178795858281 0.703935297236477 0.710285752040678
0.413890720451353 0.631778545700313 0.758092350985089
0.421251588376501 0.608985362526253 0.788024274032147
0.413154376336698 0.822053406310513 0.682154718034705
0.402489180771950 0.883485160578156 0.669168005290534
0.424561806472030 0.843066085153400 0.697662173657700
0.418716751351397 0.909772466559075 0.708722091729967
0.615983566937719 0.728527649221317 0.629287497635836
0.610270002119339 0.761221077779192 0.620990620471087
0.629913672893151 0.750786899915968 0.621856014500897
0.566408508946724 0.677160027169190 0.671608832563750
0.539497681470973 0.676044177714496 0.672219977366247
0.442537183724838 0.698340477361381 0.698764811902896
0.455769039655494 0.662449313997109 0.705558301645453
0.478647147338596 0.675931322543109 0.745100725164275
0.476854451209256 0.660805537783425 0.713256718624627
0.469140144176540 0.699518584131878 0.719369389576421
0.402055223586303 0.489097229911818 0.781941202457970
0.420049415636417 0.501736654242032 0.802820034206386
0.623610572856208 0.833296696131778 0.609158640332101
0.601855966058908 0.803653071701493 0.652355289096680
0.631752505731095 0.854530326556190 0.644134592204053
0.577560624249128 0.754162559821719 0.724436018537372
0.612397628719620 0.794725025707460 0.699479233817017
0.585555001389500 0.782318998242734 0.688403245142814
0.429593906339553 0.608775023096591 0.826508658857197
0.435115303377244 0.640373839695078 0.796713109846233
0.422154707774931 0.579713484221580 0.815161521254456
0.447195440837929 0.573504193084707 0.840721607452866
0.461442922018954 0.591731067744987 0.839252228248795
0.484232088858831 0.523785190753794 0.842939141415236
0.505916373734494 0.575227794500098 0.833211239420823
0.510025101059545 0.632293857717745 0.439306555315856
0.469516939379111 0.646142425174746 0.422368435571919
0.572472892541906 0.693003847404874 0.704044397243187
0.581290360777167 0.715890439718460 0.694330341623096
0.604334841042594 0.732172935799289 0.717209311896141
0.541017049719015 0.642723903141250 0.747207674326881
0.567093818141108 0.679118578984502 0.731652661028884
0.558319025285925 0.695983748604289 0.742172489526837
0.547912007776261 0.719326904873766 0.734926727682322
0.536059533214671 0.718094549031073 0.720546688196685
0.371189988240514 0.591643366925760 0.549144509716317
0.349435412072265 0.548094915214811 0.510173685926250
0.334788994995901 0.549621192187159 0.542268148021281
0.311969632855551 0.534728342364255 0.584362891929942
0.352980368976605 0.577544058640271 0.604083189577258
0.327859166557055 0.552397256423846 0.620450134331273
0.361155290216511 0.580421566248324 0.573615906966261
0.396222172852717 0.599672929327148 0.651925295809833
0.379497691052009 0.585520134234174 0.664619530192732
0.717198621743063 0.407089384202473 0.368143119314615
0.704812864701246 0.430866953844361 0.311679889854094
0.693332073314113 0.399912368351248 0.310815474929081
0.711256243218204 0.540864053371538 0.325724368440317
0.693258650352149 0.586744459099045 0.336957006717596
0.727617967289122 0.551122209647721 0.354962406520869
0.679578856099691 0.581489879339542 0.313546661675682
0.733298424893963 0.520188275868479 0.516408359144817
0.713914012627086 0.532471767417556 0.549379520260416
0.728715423189985 0.479537088749099 0.497734150775303
0.712451781267050 0.483433043132915 0.515181514055243
0.741997219875488 0.432002748814474 0.414802453582851
0.734053868977559 0.424486340393441 0.445848700836182
0.721191288166655 0.403315879663380 0.393651736469891
0.515057186309372 0.473102961264899 0.687275729188500
0.532928340113985 0.501215983234953 0.672226475430272
0.538802072066666 0.562846603256609 0.659325816882065
0.539602726913472 0.532891190222787 0.664956531584916
0.525032206663105 0.607864731397832 0.682915516880793
0.524727865739780 0.591896492933952 0.653838244375272
0.566282054020655 0.524775852525353 0.650590487343015
0.558060680895847 0.559697626937865 0.645747468563182
0.694923807181749 0.363170958440344 0.420782681697467
0.686789894191373 0.362576429027223 0.471753423244313
0.665592834941168 0.346113385685864 0.484373721197749
0.705988640501371 0.388916100628270 0.487214995959202
0.678144074902239 0.363408532420698 0.506786965220181
0.478832065343125 0.413601768627921 0.689317475835446
0.446212501210461 0.397202542910853 0.693613387320455
0.487808655403637 0.386837506854045 0.664222076632736
0.501786503711579 0.387893934311205 0.643735749295154
0.527908594717210 0.376297406319433 0.580369700948050
0.518469597843113 0.385382418085637 0.595649533398433
0.569686431434316 0.411169828412844 0.603849105660074
0.548481461044175 0.427171091711697 0.624458157887899
0.497605749143226 0.338850433665807 0.531812519177237
0.485187943057567 0.344041383231798 0.553344763224305
0.448964715701039 0.315352623323217 0.519683242809602
0.589299313436164 0.355585811831265 0.570064194701120
0.572541623234389 0.341716520343950 0.536363554598064
0.491107132810190 0.571710467652651 0.295491070127471
0.455729721335639 0.570865174033704 0.306329402547655
0.457172721171152 0.588420019819290 0.330139025921969
0.496029011397078 0.603429222029502 0.316936990663118
0.452418892871882 0.531128078202712 0.281415603828101
0.484942792677424 0.548202647822654 0.270577692301723
0.457321992631592 0.499459684710261 0.266643425405730
0.484664401414582 0.519455109994593 0.255385782850139
0.420695985301666 0.518451364495550 0.292547560451132
0.526648525797773 0.578319754452082 0.281650199962423
0.530810824698757 0.558703259833383 0.268603043829740
0.579614615976612 0.569719463871957 0.276518868830075
0.562904506464708 0.540552390903201 0.255199741351101
0.393859214361120 0.496085462329857 0.311627506563605
0.619684086411213 0.636314665490669 0.363919879410367
0.671195460932094 0.622744390718956 0.356656588324046
0.648126829908974 0.610847406626796 0.336302325358396
0.593202191046793 0.644205946316929 0.380891297961782
0.596127415700645 0.643607526971763 0.403173953403030
0.687638439085614 0.395839895532403 0.233564783092903
0.718064638698926 0.420782763169804 0.236792908983390
0.717343150078342 0.399474209176427 0.260448393238772
0.681605853983444 0.443329538700172 0.207676924721203
0.706486193311839 0.478474822270822 0.221284448121560
0.694798605893372 0.371932600338537 0.281483276362766
0.667948491204322 0.359291846575058 0.276932773257718
0.597260959683127 0.400172075997096 0.227151068531266
0.599130349141853 0.384539727888836 0.237970721271588
0.642674049795327 0.448462286858359 0.204425896248506
0.631820155526525 0.476730216231224 0.207187189107997
0.661823602265696 0.506298799908970 0.226283789404100
0.406545407563291 0.561414878009753 0.464674399882685
0.390362202375410 0.587596051937285 0.423184306114832
0.461787770581527 0.631756907907159 0.538606642701246
0.457180738082301 0.624083392579853 0.523872250841602
0.501291225452122 0.419962433162676 0.772236129554833
0.503530592463326 0.421901518102890 0.747602368751329
0.468003636390019 0.425211258678880 0.746063298792751
0.445440101840467 0.425711012985258 0.773766133396070
0.469102293112902 0.426838050247135 0.774709725166388
0.483079799301914 0.437459947005927 0.794382838197955
0.466221840499485 0.438287273965282 0.806133564624588
0.528367660323321 0.464278244048352 0.788904431468443
0.517055396603477 0.451515798066552 0.806478319520792
0.468597277702623 0.645121295749900 0.676243423021677
0.505151260054572 0.652646414729566 0.694455417601092
0.491943865257564 0.638203062149232 0.677819379009200
0.701111200716761 0.571884961631089 0.554473621561204
0.677686185154248 0.530217908654930 0.582030925713008
0.747609128448573 0.508108848630455 0.379924975699911
0.732890492708884 0.480048543439757 0.344910412966287
0.755478409123321 0.528228334674560 0.424071554820625
0.744746357269409 0.558372582271964 0.415445614371857
0.727559523488834 0.582244886383130 0.503736664439095
0.709286405886389 0.612782136277405 0.486282907322525
0.693392806854460 0.604565212438583 0.534052567457286
0.577603904446554 0.661765949560661 0.450941960069621
0.609737240438546 0.654747210773711 0.420991529980949
0.478678666180235 0.658264674738828 0.776330430384258
0.467038013348682 0.697032020304610 0.767591061073122
0.452145774368236 0.629470551910237 0.812891626010873
0.484258125834664 0.623736261014470 0.811344225304801
0.487714499485330 0.458908362271933 0.827853898532558
0.492848396085698 0.442614293616340 0.814349238387581
0.516150639130706 0.486020017728642 0.829189619225257
0.515590777210585 0.526669422577542 0.835565220776291
0.627897497961847 0.305374963154175 0.432182144438968
0.605641123012210 0.289270823058693 0.435674844831143
0.401406834921459 0.344467288268883 0.405800333971750
0.397876654834356 0.356396566652112 0.443513447700410
0.374142460968487 0.358862684078963 0.408484104106599
0.398529028320786 0.366237869964965 0.386051134974125
0.570555872921246 0.292684384457301 0.413622698261309
0.555323262826588 0.275704146583019 0.427056440291426
0.514651104118165 0.238750549258176 0.452632257716745
0.536572406440937 0.253762515329999 0.419531821250809
0.523455401599699 0.398766407970523 0.302366675229807
0.514400552560236 0.384338320451866 0.301278475626906
0.501892772647236 0.380826348735319 0.301139787100085
0.521761116526954 0.371750322668801 0.289112275299287
0.511441755479502 0.397951220471323 0.281758324355751
0.438924030705936 0.479151384666075 0.254661428638764
0.387581311467367 0.466413386677540 0.287835003643054
0.489259693052509 0.429237430142160 0.261234293378170
0.470611846362452 0.451908530094487 0.272992251485056
0.478730869314745 0.444034144955531 0.250654697806620
0.526281767064555 0.404377754662425 0.259397333926746
0.487972032571958 0.386560441437928 0.306446811445656
0.488386710625478 0.401582489345142 0.287385300666509
0.310234327914541 0.504221231023591 0.558648571787972
0.362174618127673 0.421585002074273 0.687100726085579
0.337863897873332 0.453294609518693 0.685528077785851
0.334926931976054 0.425770888008558 0.653643173466759
0.319964875090939 0.462725521487882 0.644896303229846
0.348043042997000 0.404086871273863 0.637817501343184
0.365677000967453 0.394320015951688 0.664006316970636
0.407508157474610 0.761159025996932 0.758049189910899
0.437874745641564 0.732884185047527 0.771499617163932
0.412229114334868 0.802895713425937 0.762977835165130
0.390544721255364 0.826404780291897 0.754963261780245
0.416043039649003 0.838680567282000 0.753955195488762
0.410398815565424 0.865156559103815 0.753452674019909
0.389951730813606 0.868615199579552 0.752316436315609
0.402437387559984 0.895759437261607 0.739921253899443
0.404808002809378 0.795045187761767 0.733859978569783
0.398769038837943 0.851601867552811 0.729423888913765
0.415655906497451 0.636451268895645 0.691006858483087
0.392439605405045 0.619830120876631 0.704617054478858
0.432164718619436 0.617093439990483 0.642829269613349
0.399052844088022 0.771790850275721 0.680747926547671
0.383542872454681 0.821724443959883 0.667055503397391
0.375860787199587 0.796835914171110 0.682927907009476
0.378453351464096 0.841828621641165 0.674658567956415
0.449390760740238 0.766251793124674 0.703344413819615
0.432380042518406 0.752290035415838 0.688775087668409
0.633461910981918 0.808935059191590 0.624056368505941
0.626600139253388 0.789272940813222 0.604464614124671
0.577739247083255 0.770676287481083 0.663468932510171
0.540968933791196 0.727105964099370 0.685893296406593
0.554525127000050 0.733379319342815 0.666529211803373
0.569249812299526 0.725781938013122 0.651682684732132
0.439461744113410 0.540927847139913 0.812262719353040
0.419010042520868 0.555641026120073 0.802282029346192
0.573116484624630 0.633116870846348 0.371564574415686
0.547889538442738 0.631405616420532 0.343304069485563
0.526805390458289 0.645116178681020 0.371561535320921
0.498610910069667 0.642830109702372 0.376682649484206
0.435518848162253 0.636023727479111 0.438004157607194
0.408846655510522 0.622175944063208 0.431255459803282
0.399575183643315 0.600326947786532 0.380019253992714
0.389368334082336 0.561304982330926 0.365730771711480
0.404707122817082 0.553052729231952 0.330281841501256
0.379871727575441 0.506383935185222 0.338612854804481
0.409378526994368 0.580923888725718 0.347915658184939
0.610734570148819 0.769316393614610 0.659143623577401
0.610580987022399 0.771717868284038 0.680602058357967
0.325580993760347 0.489329882912243 0.664166228751253
0.308108380534343 0.490751527976774 0.632031072688241
0.332131660406712 0.533057801858336 0.659974732855970
0.315104878484068 0.516794608962553 0.639195212637367
0.366477510041847 0.558136701673897 0.685315692061055
0.364193063370954 0.537003812333934 0.699458131568735
0.692322746454788 0.376701997657915 0.392048968279707
0.658111664263383 0.330471818227256 0.409927931278414
0.730953441761038 0.447354516842017 0.488690549511447
0.711599481972791 0.439752148588219 0.512127037367828
0.750247554666190 0.467095773542721 0.434689824083874
0.744398895278114 0.475726514519435 0.461277690020739
0.737290198739174 0.452289559571533 0.370408085530764
0.749891372228976 0.476058121768885 0.398396302273764
0.607627929055562 0.704133530132817 0.664583036068810
0.580729645501893 0.679186084251024 0.696900402266719
0.544663641178425 0.630497204413137 0.723946543361361
0.557722579837635 0.655401331568596 0.716540202433505
0.530298169714014 0.633845598547216 0.695770008594602
0.515271781233852 0.638535830608487 0.689092733135749
0.542732768474975 0.598600458643086 0.726779267520047
0.542292731335891 0.577779589103442 0.714984821645280
0.651903516557624 0.559004794089431 0.592659930506618
0.641295809122841 0.533820106315631 0.601662118995023
0.715632144340487 0.389755852238152 0.419388266689537
0.715831187259297 0.390934910874851 0.444862979434485
0.542671137905573 0.380985470594618 0.555460801789487
0.563309340703952 0.394531338000243 0.576013464318322
0.543018676784198 0.388471738965989 0.566842532776767
0.667224319002425 0.541072878327958 0.286881084396111
0.644577121730497 0.554947408286432 0.286864122657221
0.524759626869003 0.612817821272018 0.325518810245120
0.536475599378611 0.598726740346755 0.309270689540197
0.631722533383816 0.608991237996996 0.317234428700532
0.632536516916229 0.589785517172101 0.295167430762310
0.603138445965892 0.583264514736115 0.291059492164431
0.645607002923714 0.419260360165912 0.213055340069724
0.654275142751239 0.387316902375666 0.234839447797584
0.387067532936920 0.549445734783430 0.402183792710042
0.380230262494986 0.518930754442285 0.373181147425807
0.370687468596132 0.494489916279801 0.365752275670008
0.708139282669309 0.504034195305664 0.242955655015112
0.696865984092965 0.508938155525512 0.252809197979423
0.716811639055019 0.497760483628418 0.270218714680448
0.617257529805951 0.544467416705518 0.265053871398405
0.605447104887979 0.515243700103345 0.249369645993761
0.544061053928505 0.506574596176785 0.233582326223118
0.519403150099189 0.529663651754002 0.243749093288898
0.574276033979839 0.502263778304547 0.243917311640450
0.593983597078330 0.485806292834371 0.243673565498863
0.655620865345272 0.503258341868226 0.266294148965149
0.630659841086829 0.499460548897727 0.255203149316362
0.680930787306174 0.513823861899516 0.285936744049058
0.686744757698660 0.501653790694504 0.280400488811790
0.710348811606202 0.472922511882582 0.308326380366358
0.708872581437139 0.471538567122218 0.300879604119129
0.715292382091593 0.589000877860624 0.366511857082341
0.714068674925966 0.600925689090502 0.391213346114013
0.684543490659146 0.629782516692635 0.388967585718240
0.710575130641970 0.616722827387451 0.419289474332610
0.683943356021378 0.638766199957038 0.429586134148577
0.721812698045644 0.605459236036568 0.447272830232080
0.550637904276592 0.608492945400974 0.777589532934987
0.524431687779751 0.603118293248000 0.806380686212328
0.463055639298231 0.534571316628682 0.839113858386773
0.450343956300982 0.534471989014151 0.828498215969855
0.456869958401510 0.286216447247533 0.485211506648577
0.438753059885478 0.294794561081110 0.511796193260695
0.431089282113289 0.273700158327057 0.519847243268955
0.424010940207222 0.249021710898120 0.503750543070608
0.478299398273729 0.317507086363283 0.485110421996914
0.476265461651635 0.321565642729498 0.499934804494475
0.479522982363681 0.275955481739354 0.485402621785770
0.491098757717561 0.253496528077391 0.478903415864669
0.476012749355471 0.247336804202789 0.468906423702573
0.488108072211634 0.240457952743205 0.461633171586862
0.448133334167699 0.267705237616061 0.475322135500026
0.441499283215279 0.263595864889231 0.467357421108950
0.412718056203225 0.251015901474445 0.499323005875878
0.605157781547826 0.298464376382194 0.321341818432134
0.524581191698544 0.292564682863699 0.386491728997043
0.541456141191169 0.295294452389968 0.370212591567102
0.547231800927488 0.270990464408195 0.384532482525223
0.597183886768632 0.282833202566988 0.341162424995087
0.572195671588143 0.307542289357741 0.350262872003909
0.567248060219253 0.298987982536378 0.344078249269108
0.555927902752608 0.304968030971755 0.349202209930136
0.545546049783374 0.398880955527974 0.297497925581116
0.556650329077188 0.387290270915892 0.291430544826762
0.561200438600388 0.362317454364767 0.298256132319378
0.552250976332503 0.352440284879501 0.296866198006047
0.534120530469736 0.387954303448878 0.296090361200921
0.539844061935809 0.374247875110442 0.287792810942819
0.573068172974679 0.377618221030116 0.254866068811512
0.547508100947843 0.395225142044246 0.254523572572663
0.585190448820447 0.345690529396348 0.284604710931168
0.574296739662620 0.351146533594460 0.284163862821156
0.513719050779465 0.350227209147884 0.328075168630339
0.515272991695876 0.358555885569897 0.312220923561810
0.502846926176085 0.362089058464460 0.344008431485568
0.570595059864702 0.320502817555713 0.318931938098162
0.552927618756425 0.331943829705818 0.319023505520781
0.571026279024304 0.313227124652040 0.355862142365077
0.563593650213257 0.305694565950073 0.365306916828274
0.550129251119425 0.304525891372315 0.379203818657560
0.545224661406762 0.298053354428363 0.390092783716169
0.439367953763143 0.368052298922808 0.380952279824192
0.397115924150003 0.381055686414111 0.395719200720753
0.378950931804101 0.390987405129312 0.399092701301586
0.412964243011646 0.366076783916892 0.397420294549101
0.347866030753851 0.471800519040616 0.310294639091509
0.366480956582191 0.449733183427280 0.321520807641052
0.336110723517188 0.443925309874681 0.346939152603264
0.359640754580611 0.448025427500205 0.356370706941225
0.301954169953819 0.435040904684405 0.378831493788994
0.311229466487906 0.474124039841843 0.332818613905288
0.360795994516426 0.357674386769408 0.440809686437496
0.346348055186195 0.359473333478328 0.426187385240452
0.362212011854066 0.339999815401294 0.438479688211619
0.338245204660551 0.345066764936760 0.446409192162037
0.347841416418733 0.327302811964944 0.456717228781952
0.314793615432545 0.326429957044605 0.486833870146841
0.332453359739327 0.421996949105262 0.374851131871792
0.352218574266341 0.426372466325690 0.381222441556095
0.352533387828036 0.401940378604420 0.393928491195349
0.395955241436761 0.863168414238820 0.702392058779892
0.404172785641938 0.901653309424998 0.701014733600103
0.555034380264732 0.632346888196089 0.404707965429474
0.518194693590776 0.642997266475032 0.409995121557189
0.446141168810382 0.640670697803169 0.399526316758208
0.422198349763465 0.621200711018700 0.386944950218790
0.622782590279368 0.773801453327223 0.709170411101391
0.638284647398546 0.800008144472631 0.697657317369745
0.636221412574967 0.826796149893902 0.659139037461260
0.640214499570803 0.836209496574364 0.678779391685244
0.325082441740502 0.450663001269302 0.528063280239804
0.316556761809917 0.444949262373758 0.576012439505350
0.346076387992322 0.448606511393815 0.499138344171899
0.324723543412669 0.474314162344871 0.526594177825503
0.331751260854884 0.411081109073611 0.612377937309993
0.347847467467711 0.391578335991336 0.582775407391227
0.312691631815094 0.446116527434957 0.604771388684800
0.310697738509308 0.460043893348809 0.620366598612334
0.306436743030424 0.491369151999366 0.601375169304511
0.303716290286595 0.476333351759467 0.577743992156489
0.653568818127525 0.593965433011447 0.571173191956687
0.624058317378391 0.591687890586078 0.585045747722322
0.660364834977170 0.624277885084794 0.538354111682763
0.637678805569038 0.639042095012209 0.531878292475428
0.544983201775223 0.330839750795527 0.496468488140703
0.524679696767749 0.355859484935355 0.508190486577702
0.503509719096227 0.344951231506399 0.490764684388708
0.496501005750906 0.334646243282545 0.476933158540659
0.579846938835882 0.624369589695016 0.343765544987078
0.586339081618322 0.615484483294268 0.322588210528784
0.379788207906254 0.531170670478368 0.468495116142193
0.362938701421574 0.491752628800518 0.460656951113748
0.400715504815772 0.536449277362927 0.444422919102267
0.395566118765965 0.530563254136343 0.456370150021281
0.498252251729798 0.666932474647163 0.736011462909971
0.503580489467478 0.670601353975701 0.710904961840503
0.514622321079744 0.654828575923347 0.754850865147109
0.507452047155483 0.664449767395215 0.747544913552544
0.437671160637043 0.442464619445080 0.807447930647776
0.415880834476873 0.455998335383749 0.794318168510700
0.453311022060009 0.479366880816818 0.824552597407731
0.430112996803064 0.461757784462986 0.812394398635828
0.426830834610328 0.358115143326629 0.544814836049349
0.447757365288978 0.351713046827843 0.556255093100293
0.406899850312171 0.351824390413188 0.519450793770796
0.400247608560594 0.372649840049804 0.514828082943066
0.427180820799342 0.323786422093799 0.523982494973232
0.417819679394156 0.311484504986919 0.525773740554542
0.391406628470081 0.333938810482277 0.509628013788139
0.390208365547453 0.290534690689236 0.546243014759968
0.372811597993290 0.303000178503057 0.538479258769339
0.349165360129846 0.275235628140445 0.528862176425439
0.391225675964630 0.268119689890669 0.543406499673254
0.408525827634232 0.281005078080457 0.543283137867078
0.367090590272875 0.257950405818318 0.534030454080579
0.566349088927248 0.327447242607132 0.340347940358505
0.537569442774384 0.341529167012073 0.344727891006231
0.361353122204335 0.315015203278793 0.450809802953263
0.377164285635413 0.324200903135509 0.445223518210314
0.386844571565184 0.305825141725235 0.450948688021095
0.399477021667096 0.314377433904846 0.443130327797919
0.421842650512779 0.334936178506635 0.403791206112208
0.419348740699513 0.313491021136391 0.425937386692303
0.417391065998819 0.349737466929519 0.392689489173182
0.482035054868354 0.283738798449713 0.444173233498221
0.493111829089074 0.279555413784441 0.436284134072660
0.484075608171024 0.273245411536247 0.429292771460964
0.506517952131849 0.279804347109103 0.424154103535584
0.464474864181045 0.277166282860859 0.434716390379036
0.524366946513116 0.288443895659450 0.413987320967644
0.398351715199981 0.290386188566954 0.467855934666392
0.371093417819359 0.301336156116388 0.472636396150946
0.381640225810285 0.353406913996372 0.455045566866074
0.378887858456028 0.361140951913531 0.452299812117905
0.401618238027363 0.346911451267708 0.449674819698674
0.398656713628338 0.347607628974151 0.464560819791638
0.404658848843113 0.337004902749638 0.430704882447478
0.398932827895659 0.330421548621851 0.438221292043000
0.407109829663437 0.305744826082777 0.443632093075856
0.414525382391454 0.311829878400327 0.438872450688503
0.625040025582224 0.305098182488251 0.347961456562505
0.629746960542712 0.311482319098069 0.327572319169794
0.558980480221369 0.266071288985208 0.390691341674136
0.578767102507361 0.275680962697290 0.367144071038064
0.515597204924343 0.284265700672957 0.397770814120052
0.516645496640573 0.282763151734084 0.406701183441248
0.524098159132804 0.255437380142454 0.418424825675793
0.501651108233608 0.244838836059183 0.446445960046151
0.434158213534578 0.304084504414728 0.431112446669612
0.438831626082818 0.282533470309814 0.447780286950480
0.446045472059683 0.289999883686445 0.445806324435007
0.453100977982720 0.280349114775384 0.445540455839856
0.454320590927181 0.293364857309705 0.445158388736957
0.462678587327066 0.288239946291325 0.446395409404164
0.469386975822247 0.302639493095031 0.431277820271100
0.448081025797690 0.313225588224147 0.430129975030929
0.369097325614839 0.385100565861088 0.389132851929498
0.381885955267743 0.377113422740578 0.386587857566883
0.364225513277384 0.397088580393670 0.393515036475461
0.362212560728793 0.404586915590617 0.397783271022750
0.504499236283433 0.497080946185658 0.234370890720282
0.474401251430871 0.486683628526103 0.241576672947670
0.474873235375419 0.468140185119577 0.231944018161667
0.461927362635150 0.471028515012948 0.237140868109267
0.426285923012335 0.450073355861307 0.281280705926485
0.449965442293551 0.450490392123794 0.263461360479468
0.430347291459350 0.452429569653930 0.304298885967559
0.388714213993651 0.452354397928368 0.329478859293706
0.402094726547105 0.442118438780540 0.333959609227886
0.388644300077065 0.417293712323354 0.366160722733394
0.368499194904208 0.405026962674121 0.392674514207124
0.484885634742319 0.435140056808454 0.283636744219257
0.467343995906619 0.445528988335776 0.288310431691888
0.486434265839243 0.386687192320180 0.331178875971068
0.482301196618050 0.409584359367215 0.311911570672096
0.523782351365019 0.295250615853790 0.406233481218579
0.524505093909889 0.296820253857393 0.398435544645378
0.479379112393219 0.358536964013605 0.364162312402921
0.504268511981822 0.325419962618129 0.383301386237920
0.383334139612362 0.358612387674286 0.484486655302619
0.356214322694346 0.333856699597851 0.491584950711045
0.391929879651548 0.381809899908933 0.495269475546155
0.364471259433658 0.403025314304270 0.501438251554158
0.352534644623294 0.418767988872449 0.516307812862152
0.344812499040884 0.388461262393919 0.489693223133158
0.364960887416213 0.372796029301968 0.486397130872261
0.267301353742255 0.367235903913696 0.484544192491902
0.282384587884650 0.390459953627046 0.480718194116360
0.264786513861874 0.377112268441265 0.468994164975059
0.295208806458768 0.385980737007528 0.496248317028125
0.277546697789922 0.400928604651367 0.466402550889638
0.291619614623258 0.404173772538873 0.472966149778158
0.269391704548661 0.391304843949185 0.448329137324093
0.279878103214918 0.401131084381844 0.430013726043687
0.301830171097782 0.417871193296334 0.423284182893196
0.280725929250494 0.369639574276526 0.459804259987830
0.283680411335357 0.346105489609744 0.485852250997585
0.478313286045420 0.633465442104361 0.362097773045982
0.460377897822795 0.617794923286749 0.354704552070796
0.520661765646471 0.644628616716972 0.509053093117854
0.517738378813304 0.639033579368037 0.525697180214632
0.524825048083268 0.636887746450212 0.544454455539761
0.500590599325418 0.629783125488020 0.572715564086227
0.534336404567159 0.645280323858506 0.490227052639882
0.503502715432103 0.637062518082553 0.466034352298324
0.560769840318847 0.652864687674339 0.454820441640361
0.540136909370520 0.653938694031410 0.460384963059685
0.575642027798511 0.653018037869095 0.485104361039402
0.569138707188273 0.651096951165983 0.508881858543109
0.572237220810704 0.632959765142671 0.551114727419663
0.541835953057787 0.628613932565624 0.561970722314979
0.546047021113271 0.607606312386667 0.592198452296167
0.480805767767644 0.623231857548693 0.644397717334710
0.498321993676857 0.615213160730338 0.643591772057430
0.443026690109030 0.625099732442075 0.569429608924330
0.405112322692462 0.612713371545085 0.569801786776062
0.406070275224951 0.616988304813724 0.605689111610643
0.373117087908898 0.596256471279725 0.590612080951930
0.447578999313957 0.630731725933232 0.610387029402266
0.453886496791841 0.633399486908452 0.592418229750103
0.493738666438496 0.633843603119643 0.606277091133431
0.485033145700888 0.635855838621241 0.592886374916762
0.537443856296983 0.598146474865012 0.628872015305218
0.524888388133394 0.616355685340877 0.611174683759019
0.616646524596251 0.469909220602634 0.604101448771039
0.624223756821664 0.445835656707599 0.582025291638526
0.694265052088092 0.498892564541605 0.561365501140932
0.689377100162148 0.474549949982769 0.552335891520552
0.659945442670490 0.487538256382783 0.584691944232411
0.643616943394121 0.505540433868928 0.600946671329760
0.654220534873178 0.409913979435189 0.561131424086474
0.618491845271554 0.392752599154572 0.579773254764533
0.601482160600169 0.415435981053909 0.579649559274997
0.582572552259417 0.408567573886116 0.582175222949545
0.588037025034833 0.454398187537127 0.613056333228843
0.582939277091747 0.430145482441159 0.603659391616668
0.518719404051808 0.446247275624847 0.673978413427590
0.504883628976310 0.410351809122269 0.662567887956398
0.531035803990941 0.416254230968078 0.639825672590803
0.522021527731331 0.408048535745309 0.648346853099639
0.555031646006921 0.475052217281795 0.649441236208711
0.545698699731426 0.444909118674164 0.651800441860334
0.561943136881405 0.467589926530043 0.635921611420792
0.570206204390519 0.496794839402623 0.637800273813222
0.600448274360574 0.490520905798351 0.613361593909497
0.598158216190806 0.517317405873830 0.619801662950075
0.582931133246178 0.517704875068006 0.627981867384971
0.581430589065201 0.542167522459295 0.620479974204458
0.596235523442922 0.560236408342675 0.608856129210065
0.572531582067082 0.568578048106694 0.619600027646213
0.595448713178423 0.581392232198886 0.600640224301484
0.568742680302572 0.583213497319821 0.607730635646532
0.666690382263405 0.647513091209512 0.472382517279219
0.692006309257264 0.633979030920637 0.464345750588838
0.643773979248030 0.657361647988375 0.459028990801727
0.657806014924864 0.641301781550894 0.397727889457574
0.651216296646981 0.651368009487678 0.419132580656793
0.616300271976817 0.663813378036418 0.459052387564815
0.602199447317740 0.661973287552800 0.458594357580902
0.674900426351395 0.640765552979487 0.496475451623772
0.679413083564988 0.629481516476039 0.513189354342747
0.611810906174703 0.651376346827532 0.506500297579622
0.630640564168832 0.655413985101897 0.495720016109675
0.589730341418001 0.652818271033707 0.520318166155014
0.596359471119206 0.644520128300340 0.535292614292106
0.577644640716027 0.608970424889936 0.582280571440413
0.603582398524508 0.622186666761030 0.563190025017413
0.397856253562065 0.494838618685671 0.425175484904920
0.396725160226722 0.476458828170159 0.419430456308079
0.409114825049211 0.252352519536499 0.533180876460710
0.393831899510473 0.244396533622617 0.528762966955739
0.356226224269825 0.314973788994492 0.519751792458885
0.347019424047354 0.298019241549525 0.522676842287547
0.346653518713625 0.310612290194705 0.506779071806822
0.344091909945059 0.317260667495783 0.493087053605497
0.334848479502818 0.309639902339523 0.499913711561207
0.337130806632412 0.296357122322069 0.507438314348210
0.357892661940744 0.266539646338334 0.520292754073676
0.375786457208851 0.250334381422014 0.528355656238139
0.450655626289807 0.419230602996283 0.324082871494337
0.437231434740559 0.407531261750968 0.343747608821689
0.424287575406987 0.359614047004984 0.398104156582481
0.435315375709857 0.351663749617174 0.398830875391319
0.453339994174496 0.335015060647038 0.405013594310983
0.440786558567790 0.330887427338708 0.415127361880571
0.339729743635256 0.493089550484131 0.343321632621398
0.326882455041891 0.487417148176969 0.361181625739722
0.336951085310175 0.476887499236137 0.387380989928187
0.385515659554725 0.468156663888599 0.393166179250941
0.387018889805860 0.457724299873363 0.405050242127752
0.344126399474041 0.448132269747227 0.448064669956658
0.338148366523973 0.437683600880606 0.467793799325138
0.358476079383162 0.458318258514241 0.431063931118607
0.350429978151306 0.449457034325922 0.414514793724302
0.305752704326134 0.466874164921943 0.369967955692508
0.297086731584435 0.461196602269434 0.359800130269396
0.315290774014610 0.444167756982593 0.394848673205494
0.311373221627200 0.457346326030373 0.385285301312244
0.342012223183328 0.440552753968902 0.418120435380958
0.332620317618569 0.434127315022180 0.433382585706198
0.306819032640398 0.420734299107315 0.393596533538127
0.354039073347472 0.386059183812184 0.395055019830978
0.343035115661046 0.394896839133960 0.394591863323305
0.314908486646202 0.420894143537298 0.403442804182210
0.300459642850999 0.412713440847036 0.404667148703031
0.320592738531130 0.410007260645909 0.391477802109993
0.298476789590967 0.395841994465864 0.420244922430742
0.349312636874852 0.428808972163342 0.497926136281167
0.338709448034171 0.414185433282826 0.485579546233402
0.324151226127726 0.406925386111755 0.476662486339298
0.323685047870657 0.420786064265238 0.461865840003285
0.309453619128237 0.373020240030536 0.504614008625124
0.322345341138465 0.388001592152154 0.495039684491926
0.320678008342267 0.361365031522349 0.501989250299246
0.286950180656426 0.359032852764929 0.502545319117197
0.287539930353300 0.372007414885701 0.497346363016881
0.294776461250900 0.338985852920390 0.494737720698291
0.318931201013132 0.344211848555466 0.500254397469593
0.279972932241887 0.348642120791000 0.495852799551665
0.325098004327775 0.327555870158561 0.493722374577299
0.334573045551535 0.315255343392459 0.490976483886867
0.335005963158196 0.315552136762401 0.500023108300638
0.340911158475674 0.304462977751566 0.490914329105406
0.341537135900670 0.311193553825608 0.493430787801613