# This PCD file was generated using the MATLAB® pcwrite function
# from Computer Vision Toolbox®.
# .PCD v.7 - Point Cloud Data file format
VERSION .7
FIELDS x y z
SIZE 4 4 4
TYPE F F F
COUNT 1 1 1
WIDTH 883
HEIGHT 1
VIEWPOINT 0 0 0 1 0 0 0
POINTS 883
DATA ascii
0.286802438906822 0.617543339549714 0.453568909811884
0.276787539222798 0.623080627293439 0.456308653434562
0.284216829946460 0.599259115232402 0.462551107258386
0.292590195476812 0.625685503086591 0.448374571691813
0.299822964506020 0.617913262739274 0.445550054004860
0.294374304193127 0.616526050778424 0.449950598614000
0.279719951173372 0.712363130440355 0.486226191390222
0.276910846952651 0.706617760902503 0.485486345011103
0.273635485378422 0.699180763445724 0.481012586437362
0.268213798631434 0.681987041864303 0.479660054775533
0.263231395672049 0.679177937643582 0.484580803869992
0.270818674424586 0.687293127614553 0.478307523113705
0.266206194654760 0.688842180970835 0.492615073143247
0.263512691430777 0.670939439942757 0.479016542560361
0.327147186768203 0.702047668164814 0.437535051564395
0.333177705431342 0.696429459723372 0.437727719892290
0.320072405767869 0.700429254210489 0.440764172739928
0.317868280096741 0.686507040836738 0.441249696926226
0.307259961962798 0.730077056507096 0.443523183195396
0.309737676659538 0.723302838098279 0.443900813118072
0.306550942516142 0.723175677001868 0.451407171172893
0.310319535009784 0.731132878943965 0.429265726931107
0.330634483503117 0.713006642655527 0.412218433278886
0.334757585720088 0.703280745463347 0.434348317420998
0.341789979688284 0.701153687123377 0.435157524398160
0.343747489899706 0.695535478681936 0.436752818153138
0.321066574339812 0.708567564380808 0.438421325872715
0.325690614209311 0.707515595310497 0.434402264552809
0.314300062664111 0.710397913495818 0.443627224092460
0.313594896584012 0.716235763831061 0.442868110880551
0.316330786840133 0.705731486594182 0.442174504900126
0.290540204468000 0.739248068914936 0.475367404430015
0.284875755627864 0.739224948715589 0.480823771476024
0.304281309613529 0.730258164735318 0.454154621528687
0.298732461770130 0.729533731822430 0.461487578088401
0.298011882223800 0.715441970320130 0.457480076868168
0.293692258312376 0.711160880074286 0.461784287313361
0.261447286955734 0.645780809686123 0.480357514122516
0.266221608120992 0.646065958811409 0.467009452365895
0.261963638074494 0.636617504011399 0.478288256280915
0.264784302394889 0.657849553745516 0.476581214895758
0.276833779621493 0.600203190039091 0.470458215435230
0.275300139731442 0.593802748186393 0.477760345062481
0.259663178239419 0.608495634871727 0.484045185918442
0.254125890495693 0.608630502701254 0.493570708049611
0.265396987677598 0.615319947045796 0.472966757064433
0.272860958700281 0.626105520041404 0.457722838961317
0.268830337280701 0.618992205375490 0.465564439906676
0.268086637535023 0.625068964437324 0.463325633936527
0.271955417559171 0.631211230730642 0.457915507289213
0.262695777720499 0.624009288633897 0.473490814916310
0.268710882917406 0.656947865970964 0.468835948114347
0.271874496861455 0.650204474494611 0.460111926227225
0.268375640026867 0.660446722805552 0.471406143608477
0.310978460691187 0.756445643862916 0.395298300723076
0.305626134542242 0.759478243343996 0.403236235832383
0.306743610844037 0.763462624364881 0.389414209989138
0.304073227819402 0.767867022340579 0.389352556124212
0.303699451263284 0.774186543495561 0.386624372601207
0.303684037797052 0.774903269675334 0.376651859949320
0.304581872205047 0.764811302660151 0.397047729140370
0.348672092360723 0.555099534478684 0.405255399908731
0.358563684314893 0.557496328477707 0.399903073759786
0.356702508267420 0.550182638750783 0.399352042342004
0.262977073479226 0.496501389232453 0.531638116275264
0.261127457531427 0.501383604661333 0.523946796625663
0.266919067467975 0.491245397247456 0.523966063458453
0.324492217209799 0.405631299063676 0.531568755677221
0.316904938457262 0.414355320950798 0.527407119794672
0.324746539402621 0.407272833217348 0.518432629081285
0.276444589599143 0.510057532783202 0.455114109801608
0.276305868403058 0.500944320873731 0.458655353668333
0.274317531259173 0.499295079986943 0.464296682309122
0.273781913307623 0.513695110813875 0.472697021405379
0.282170692304206 0.595486669372202 0.646059982846024
0.276737445457545 0.601748390028816 0.649096435693662
0.268633815586247 0.601941058356712 0.643882830740802
0.272887932266187 0.593425118263717 0.638426463694793
0.260445411650676 0.609019692723603 0.641551543973263
0.260722854042845 0.601979592022291 0.636322525554170
0.249744612719343 0.623635512077779 0.632900736050741
0.252218474049525 0.612641857288045 0.633074137545847
0.253058507959150 0.617693620845473 0.636249311589570
0.250153069574482 0.608749957064549 0.624966654307992
0.247451859617382 0.615212052782175 0.623853031372754
0.247528926948541 0.611031150066836 0.617930406973237
0.246893121466485 0.625288606331125 0.627270967509626
0.245868125962079 0.625804957449886 0.622878129633601
0.245347921476760 0.619296621333566 0.615811055366383
0.246769813736631 0.633631144929014 0.622808769035559
0.250939156352296 0.614957730589352 0.580236775303702
0.252996854094224 0.610460851816264 0.577589512478413
0.249182021201887 0.621743509097842 0.578163664095543
0.317906813762320 0.636702278075673 0.672571144764487
0.313614163416802 0.644578559320053 0.670879516845562
0.315325058168517 0.622398581412688 0.672062500378842
0.309876397855623 0.629704564406497 0.670494180189770
0.301406698161324 0.633954827719879 0.666205383210810
0.302994285183185 0.626741325523460 0.666062808648167
0.563115794675311 0.795283725400152 0.392123126679353
0.555636410186396 0.793468789751373 0.394785802970873
0.560171822625063 0.797904014659535 0.387572300774454
0.561474260521639 0.791850375797049 0.399533150570226
0.569531649994242 0.811101795120397 0.372598118330393
0.568510507856394 0.804250509380423 0.380108329751771
0.565554975706472 0.802323826101465 0.381171858921756
0.569427609097178 0.804308309878791 0.385699564627307
0.570768580659333 0.819043583596263 0.374416907345729
0.570741607093427 0.811803107833938 0.377044903338228
0.570926568688207 0.818434751680112 0.367083950786015
0.568949791643996 0.812184591123172 0.385399002035790
0.561639955283630 0.812962971167871 0.395552622915899
0.559308668516090 0.824966207995780 0.388034704761404
0.552684731403033 0.824199388050754 0.393514192006761
0.552912080029950 0.816955058921872 0.397849229384417
0.547744715475784 0.853068810302662 0.384921184582608
0.534624002346080 0.848255955471825 0.398750917158969
0.543166916004980 0.848024753478350 0.391078864342158
0.516416845359926 0.871121832626499 0.406711972467624
0.525607124600556 0.877221711887680 0.402604283716885
0.518751985494023 0.870123810687998 0.398041897712313
0.541267206291927 0.879213902398122 0.386007833951941
0.536743353952934 0.880751395654731 0.388589589545744
0.538512049203017 0.877133084456848 0.393024814453906
0.542993514509874 0.878743791678057 0.379426283871020
0.535537250220306 0.878639750780993 0.383819121747044
0.544488620734345 0.872520604687022 0.385002105280324
0.547575167347236 0.874786384223077 0.372910241021584
0.554387919421631 0.856621614269060 0.376212576161718
0.549185874568445 0.863164630684402 0.380632387603648
0.543463625229939 0.831474544112100 0.370370872459917
0.530635767958637 0.837339368013248 0.377021783138880
0.543479038696171 0.842148369477528 0.366771828094823
0.533121189388493 0.827301348129877 0.378566983128605
0.535175033763862 0.851273141486673 0.371950752748663
0.530192630804476 0.848491010831857 0.376543965685699
0.520154610921105 0.841065573474753 0.383796001547697
0.520871337100877 0.853099637235125 0.384647595556996
0.558838557796025 0.865488210718825 0.362421377250936
0.558514875005160 0.865214621693213 0.358926373782906
0.553089334891614 0.870355012681473 0.363619774250448
0.563069554276616 0.857889371866615 0.357018957336738
0.565951872461938 0.850691283136428 0.353770569328414
0.568714736283964 0.836507040836738 0.355261822186328
0.562202546801085 0.849905196358613 0.352471984798397
0.560927082470415 0.857727530471182 0.354764737900357
0.555536222655890 0.862108808247533 0.357053637635759
0.549586624690468 0.868524663566463 0.362764326874591
0.549575064590794 0.865195354860424 0.360598734869042
0.549505703992752 0.872474364288327 0.366263183709178
0.647123039004440 0.518253643451890 0.355708812707046
0.650733643469208 0.510412042506530 0.351558736924171
0.637693851037220 0.516666056430028 0.350310246159406
0.561462700421965 0.515348205067221 0.329567573978143
0.551536428168774 0.525586600011604 0.339513113064125
0.564907610124742 0.523436421472287 0.336746395875541
0.560564866013971 0.529721262328248 0.344314407795288
0.582702456889199 0.522931630453200 0.337405321556945
0.581573420487730 0.517972347693162 0.333559661732145
0.598139043320211 0.518985783097894 0.337016131534595
0.587257136160656 0.527871646380448 0.342545712545205
0.572641316806480 0.527644297753531 0.342538005812089
0.603745691661979 0.531416743613731 0.352167568840321
0.612384939484827 0.525097222458749 0.345663086090559
0.598786408901941 0.525856335670658 0.342322217284846
0.610523763437353 0.519964538203604 0.341767332500506
0.626334126424483 0.523232193044717 0.348175481086320
0.623155099014202 0.528172208971966 0.353154030679148
0.633509094955323 0.526969958605896 0.358259741368387
0.634449316395454 0.522442252900345 0.353261924942770
0.616716123495924 0.539215957526953 0.374374520313592
0.634557210659076 0.536229598444568 0.374478561210656
0.618353804283039 0.536245011910800 0.367584888438544
0.601545419357409 0.537990586961536 0.362675699443759
0.531383321070872 0.519556081348465 0.335324503615670
0.534593175413616 0.513583363183695 0.329232331087605
0.356093676351269 0.721788465041018 0.397086262805949
0.357927878832837 0.727056017125689 0.386092608016215
0.361812072323216 0.735171207096661 0.379214348710334
0.357419234447192 0.762873059281520 0.297087547261469
0.361234067339529 0.765882538563252 0.309799803536034
0.357480888312119 0.758345353575968 0.307167954176977
0.319452013752045 0.725953954290125 0.403205408899920
0.387117130509051 0.694525896643762 0.450667324793773
0.326804237144549 0.827640444386973 0.267632413292758
0.338926928335753 0.811456304843726 0.260869754983615
0.334618864524003 0.805352572215987 0.271948183837624
0.331694159306544 0.822353625469513 0.265605542483294
0.339007849033469 0.823598262867719 0.254515553529612
0.344190627053866 0.817421316275380 0.248804864290780
0.355669806029898 0.844048079190580 0.231984919265476
0.363912157097281 0.841477883696450 0.231969505799244
0.359180222964160 0.837154406418468 0.230905976629260
0.367025677276077 0.832179710192199 0.229792353694022
0.347720310820917 0.825840922204427 0.240812982049662
0.351149807057463 0.812608461444543 0.238412334684080
0.356471306273945 0.805071276457259 0.234250698801531
0.353904964146373 0.796566896463938 0.237013562623557
0.319078237195927 0.849716381397275 0.258442134052128
0.321860367850742 0.854714197822892 0.256369022843969
0.329748209194797 0.849069015815545 0.249671871766311
0.328499718430032 0.855307616272811 0.251193951556688
0.333759563781587 0.853168997833168 0.245984199970385
0.341674378691547 0.837335514646690 0.243733833900562
0.340333407129392 0.844271574450939 0.242146246878701
0.345670319812106 0.850756790367912 0.237456699777717
0.447406903674207 0.738531342735164 0.483039457246826
0.442767450338476 0.732011446519170 0.482611733558897
0.441029582020856 0.767770688176631 0.483894904622683
0.448674661271761 0.769574063725736 0.480592569482549
0.446686324127876 0.772864838766196 0.478527165007506
0.448747875236362 0.763420237332744 0.488626838755804
0.455579894143547 0.768757150015458 0.483921878188589
0.470380675092503 0.770279229805834 0.479671614875207
0.473871825193975 0.775681649720033 0.474377089224630
0.463972526506688 0.768448880690824 0.483024043780594
0.458207890136046 0.759813486234534 0.485112568454985
0.454088641285633 0.762129359535842 0.488033420305885
0.437573112218405 0.764356605406317 0.488603718556457
0.436602063845810 0.769724345021494 0.488364809829866
0.442305046351526 0.757963870286735 0.492487912046836
0.444050621402262 0.753894715201575 0.492129548956950
0.449776724107325 0.747343992053118 0.485336063715344
0.508825713240831 0.776082399842056 0.460975080336198
0.503974324744415 0.780351929988227 0.458027254919392
0.485351004170007 0.776479296597521 0.471032367052359
0.471948995281574 0.776263508070278 0.469938010949911
0.502016814532994 0.773392749984631 0.466073084292321
0.500151785118962 0.776194147472235 0.464951754623968
0.491789979688284 0.773307975920356 0.470916766055622
0.721716508832580 0.399627753966443 0.393290696746402
0.717381471454925 0.396202111096455 0.389591464850803
0.688916652691598 0.381389770047826 0.365064786709667
0.686589219290617 0.369378826486801 0.364186219134462
0.676162009384896 0.379802183025964 0.359878155322712
0.670925284232688 0.389755428845062 0.360016876518796
0.680986424315407 0.393682009367578 0.363195903929077
0.688199926511826 0.416813768814748 0.361249953817330
0.694974144920642 0.423279717898932 0.367014590187972
0.693359584332876 0.406725655166124 0.368929713367256
0.698280333427334 0.411977793784564 0.374763710335941
0.698164732430597 0.405203575375747 0.374894724798911
0.690037982359952 0.399257830776883 0.367573328338870
0.694276685573660 0.391759179455178 0.369068434563341
0.673395292196312 0.404648690591407 0.357149971799707
0.677718769474294 0.399712528030717 0.360286612177851
0.730737239944662 0.467655087179893 0.393252163080823
0.733153300776475 0.463354730101259 0.396419630391430
0.727088101814315 0.455717357583469 0.390061575570868
0.712283467498802 0.394094319589275 0.384015643441498
0.578359712778427 0.448704230448062 0.323521641848773
0.574363771657869 0.429183075465659 0.326704522625612
0.571820549729644 0.438377208072847 0.323097771527402
0.566595384677110 0.424882718387025 0.326442493699673
0.584324724210082 0.424185259040042 0.328839287698697
0.582305560133734 0.438905119291281 0.327324914641436
0.593002505698509 0.436558419057511 0.329752535572923
0.630777058065760 0.440384812049521 0.335798467702294
0.636572521368866 0.433283057483282 0.339497699597893
0.624284135415672 0.432466143773004 0.335863974933778
0.638957755268216 0.445502082838434 0.338287742498708
0.643508581173115 0.440438759181332 0.342152669156297
0.644471922812594 0.431710883927652 0.343089037229871
0.647288733766431 0.442989687842673 0.345139028238682
0.578783583099798 0.462214133600116 0.320928326155296
0.587322643392140 0.455062285268624 0.323760550575364
0.607105827300482 0.494304970294441 0.332642560491360
0.615305791335727 0.478976278127051 0.333355433304575
0.607861087145833 0.482806524485620 0.329744828839808
0.616719976862482 0.492532421677800 0.336677035277499
0.660447980561714 0.476583337494585 0.351655071088118
0.659881535677700 0.461836503677440 0.349412411751411
0.651739372140824 0.468009596903222 0.346229530974573
0.668805932625834 0.465697576968472 0.354564362839345
0.692820113014767 0.456541978026863 0.366667787197760
0.698842924944790 0.445779525230604 0.368413362248496
0.686812714550976 0.437290558703515 0.361812545334785
0.772211024207513 0.465350773978260 0.570233435719351
0.775174263090550 0.453613419442847 0.563243428783292
0.775135729424971 0.471496893638136 0.564226037255560
0.779281951841289 0.462661124120834 0.554419219365664
0.778326316934926 0.476660404825743 0.554191870738747
0.781181661554341 0.465913365495715 0.546989928642001
0.781166248088110 0.452345661845293 0.546119067799912
0.776072097498545 0.485977845162784 0.560846634784268
0.770195713497723 0.455867638879228 0.449318646498502
0.772141663609470 0.467570313115619 0.453156599590187
0.776561475051400 0.462649564021160 0.461325736692969
0.737295669826235 0.475188418800619 0.396253935629439
0.402761798734191 0.374160854385175 0.534050323740519
0.402380315444957 0.379428406469846 0.550257583483114
0.394292099039891 0.378773334155001 0.538138745658468
0.406129641105810 0.357001813102775 0.552130319630261
0.409108293455079 0.362785716306207 0.542936187023074
0.409482070011197 0.347514824637185 0.541687696258309
0.404095063563230 0.375085662359075 0.572819044679713
0.403289709952625 0.377073999502960 0.556785186432224
0.404071943363882 0.370477035955807 0.560946822314774
0.400711807725380 0.383000477269035 0.554900890185403
0.402942906962413 0.355822682936052 0.563528577908577
0.408988839091783 0.344146982265567 0.617063399497706
0.415065598153617 0.340717486029021 0.621309809444529
0.429534989578592 0.338706028685789 0.623564028880910
0.422020924790656 0.335553974841414 0.626573508162643
0.421377412575484 0.351271857031153 0.613260126705043
0.421797429530296 0.346917552820708 0.616254192520543
0.410079341827673 0.353264047541596 0.604778866911069
0.416514463979393 0.356154072460033 0.607630358163927
0.468538765877819 0.404109219273299 0.624558197452853
0.460866713061008 0.395227209357302 0.625255656799835
0.469186131459549 0.392514439300530 0.621332929643877
0.459221325540778 0.359363926802777 0.617606724182372
0.462673941976670 0.369297905789085 0.617456442886613
0.452258292170623 0.364881947713713 0.618870628413368
0.404669215180359 0.349930885468999 0.599083591138469
0.399043300005802 0.343210614191993 0.564241450721792
0.399921867581007 0.348917450064267 0.571975157403529
0.403624952843164 0.357352469459545 0.579523902490487
0.406249095469105 0.371891221482563 0.582086391251501
0.402915933396507 0.357383296392008 0.571609087580527
0.472500026699356 0.325323286630146 0.647054151417967
0.463737471146655 0.317200389926059 0.641767332500506
0.467856719997067 0.316764959505015 0.646414492569353
0.467702585334751 0.329689150940265 0.638673079154499
0.508166787559428 0.347410783740122 0.654845658598073
0.498294462438047 0.343133546860835 0.655003646626948
0.504471409030386 0.343276121423478 0.658837746352074
0.499920583125487 0.329669884107476 0.663920336841965
0.513896743631049 0.340756019694600 0.664671743320759
0.688315527508563 0.327966696088877 0.627324914641436
0.679868948013611 0.327188316044178 0.632866055751720
0.678196586927476 0.320417951001919 0.633636729063303
0.672686272749656 0.320741633792784 0.636422713084676
0.671819265274125 0.327616039732107 0.636345645753518
0.634703638588277 0.366704590095607 0.668875766235446
0.628592199227422 0.357236868462808 0.669592492415218
0.635836528356304 0.357891940777653 0.666444291937401
0.644051905857781 0.368034001558089 0.669014487431531
0.657060871357306 0.340725192762137 0.640349293607193
0.669992769525672 0.348366418646485 0.637486242254661
0.666844569047855 0.356053884929527 0.645347110032810
0.683560473176095 0.387427995444080 0.653554780801171
0.677221685188323 0.378233862836892 0.654352427678660
0.684481427783437 0.377574937155489 0.651362215229717
0.669707620400387 0.374630965105241 0.654429495009818
0.680631914592079 0.365417565665264 0.647951985825961
0.678289067724866 0.370739064881746 0.651604977322866
0.612207684623163 0.388718873240982 0.681010017526323
0.615082296075368 0.394468096145393 0.684266112267762
0.612962944468514 0.381150861321235 0.676185602595812
0.620450035690545 0.377066292769844 0.673083642516690
0.611598852707012 0.375070248892843 0.675229967689449
0.601946169479432 0.364446517292669 0.678039071910170
0.594624773019391 0.361853201599191 0.676227989627949
0.568398760226214 0.358836015584343 0.666008861516356
0.562587883456877 0.373097325215190 0.669014487431531
0.558040910918536 0.358940056481407 0.663889509909502
0.578378979611217 0.356015351263948 0.667157164750615
0.573411990118063 0.349229572755458 0.661793278501996
0.561285445560301 0.382187416925314 0.672671332294993
0.570525818566184 0.375528799513235 0.672147274443116
0.575431154194411 0.363783738244707 0.669869934807388
0.583604144663751 0.360824352728228 0.672058647012284
0.586914186537001 0.367899133728561 0.675118220059270
0.596948353053815 0.382684501211285 0.675507410081619
0.586390128685125 0.373301553642760 0.674906284898584
0.621656139423173 0.353186980210438 0.669353583688627
0.625181969823666 0.350104286964105 0.666340251040337
0.622954723953191 0.363606483383043 0.673037402117995
0.622553973831167 0.359387047002125 0.672578851497603
0.647689483888454 0.388106187958273 0.668128213123210
0.645246449490735 0.392252410374591 0.669426797653228
0.637111992686974 0.387605250305744 0.672671332294993
0.633501388222207 0.380977459826129 0.671881392150620
0.622769762358411 0.428362308388823 0.682112080361887
0.637589810140156 0.428481762752118 0.680932950195165
0.594960015909930 0.434192451990950 0.690339017963038
0.578953131228347 0.429391157259787 0.686820894295661
0.580637052414156 0.437086330275945 0.691464200997950
0.571454479906642 0.436069041504655 0.688123332192237
0.581473232957224 0.393554848271167 0.682431909786194
0.574772228513008 0.402186389360899 0.683715080849981
0.567577993149378 0.395889988405264 0.681834637969717
0.585750469836511 0.406976123992389 0.684015643441498
0.586320768087082 0.413877503497616 0.684058030473635
0.492179169710634 0.296708186571062 0.614693579064587
0.494044199124665 0.293105288839410 0.614123280814016
0.485038881478815 0.293544572627012 0.613938319219236
0.487150526352553 0.300993130183464 0.612188890801942
0.569046125807944 0.337746540412868 0.650626222217155
0.568903551245301 0.341106676051371 0.651165693535263
0.559416562779712 0.336933480069148 0.653732035662835
0.618623539942093 0.332166865637005 0.648861380333629
0.600347022357897 0.337056787799001 0.650275565860385
0.610192373913372 0.329893379367835 0.644896266145534
0.597318276243375 0.342278099484977 0.657743390249626
0.612207684623163 0.340062413714176 0.657754950349300
0.604959502127722 0.338274451631302 0.653839929926457
0.524493501665318 0.524153147652059 0.660020729885354
0.510394033429903 0.515328938234431 0.653809102993994
0.516744381517349 0.523101178581748 0.651566443657287
0.512702199998095 0.525259063854181 0.642287536985825
0.518131593478199 0.513329040990873 0.666482825602980
0.527811250271684 0.513082425531166 0.673931383159432
0.518389769037579 0.517895280362004 0.661485009177363
0.500475467909827 0.506801438041763 0.647998226224656
0.503427146693191 0.500285395192327 0.656991983770832
0.498729892859091 0.497060127383351 0.650541448152881
0.518251047841494 0.465940339061621 0.680297144713109
0.511781245390753 0.472117285653960 0.677318492363840
0.507604196041972 0.477847241725582 0.671889098883736
0.516671167552749 0.537046512154847 0.639647980893652
0.510428713728925 0.539173570494816 0.639224110572281
0.502413711288459 0.530569002970990 0.635262849750743
0.513353418946383 0.529070043379960 0.639647980893652
0.524158258774780 0.528981415949128 0.648321909015521
0.523784482218662 0.532595873780453 0.641150793851239
0.531772511093222 0.535524432364470 0.642522592345857
0.532073073684739 0.537362488212596 0.639409072167061
0.499057429016514 0.395928522070843 0.612639734689218
0.496884130277850 0.375524946146677 0.608115882350225
0.506205423981449 0.524788953134115 0.637705884148462
0.504856745686178 0.518292177117469 0.642464791847489
0.501041912793841 0.513178759695114 0.642900222268533
0.494969007098565 0.507568257986788 0.639432192366409
0.493123244517323 0.499699683475524 0.640295346475382
0.526578172973151 0.466606971476140 0.684393273364174
0.529545265222746 0.472976586396376 0.687325685314748
0.523083169505121 0.473338802852820 0.684165924737257
0.534138478159782 0.454734749111201 0.681453154680484
0.529310209862713 0.451952618456385 0.678077605575749
0.519002454320288 0.453359097250025 0.673048962217669
0.524169818874453 0.441186312293568 0.671064478440342
0.512563478802010 0.460788387973687 0.673214656979659
0.507839251402005 0.467073228829648 0.670968144276394
0.504929959650778 0.468236945530139 0.666602279966275
0.511523069831373 0.501510765757744 0.667900864496293
0.513075976554213 0.498516699942244 0.671565416092871
0.522485897688644 0.499456921382375 0.678181646472813
0.507997239430879 0.498046589222178 0.665623524860564
0.505727606528267 0.490933274556265 0.664899091947676
0.499978383623856 0.486278407754302 0.657149971799707
0.496148137265288 0.484848808761315 0.649281397288442
0.500976405562356 0.477369424272400 0.659646953329237
0.495554718815368 0.471816723062443 0.646942403787787
0.499751034996939 0.470626032796047 0.655982401732658
0.502625646449145 0.468098224334054 0.660833790229075
0.499662407566107 0.456846393984939 0.644834612280607
0.502394444455669 0.459967620896851 0.653577901000519
0.502263429992700 0.440392518782637 0.636334085653844
0.502221042960563 0.431140585677081 0.630064658264115
0.504825918753715 0.436562272424068 0.638322422797729
0.537672015293391 0.434724216575942 0.678046778643286
0.531186799376419 0.433968956730591 0.674297452982433
0.535275221294368 0.419638286501701 0.672405450002497
0.542276788330101 0.519205424991695 0.677318492363840
0.544060897046416 0.525124196024654 0.672817760224194
0.537733669158318 0.513818418543728 0.678724971157479
0.542026319503837 0.513702817546991 0.680940656928281
0.546353650148376 0.509845597622517 0.683614893319475
0.537803029756361 0.500316222124790 0.683788294814581
0.549756172819016 0.536110144081273 0.657377320426624
0.665287808958457 0.368477138712249 0.653069256614874
0.659912362610164 0.369629295313066 0.657462094490898
0.647296440499546 0.358612520323984 0.662051454061376
0.648568051463659 0.365151683372767 0.665280575236910
0.641886313852232 0.360115333281571 0.666062808648167
0.659808321713100 0.355637721341272 0.649666733944234
0.654991613515705 0.356215726324960 0.654256093514712
0.647404334763168 0.347526384736859 0.653227244643748
0.666570980022243 0.323327242753146 0.638222235267223
0.629185617677341 0.331230497563432 0.645096641206545
0.618631246675209 0.329943473133088 0.644719011283870
0.632407032119759 0.328691129001765 0.642626633242921
0.627817672549281 0.325377233761957 0.642187349455319
0.616149678611911 0.325951385379087 0.643343359422693
0.614608331988744 0.317920969472390 0.644796078615028
0.431226617497517 0.656974839536869 0.480245766492337
0.439773384522975 0.655945990665906 0.492453231747815
0.438509480291978 0.654886314862479 0.478789193933444
0.423034360195387 0.652932658017615 0.458034961652508
0.418807217081353 0.655853509868516 0.462192744168500
0.484850066517478 0.644424424657737 0.498418243179469
0.492876629057617 0.642231859086282 0.494006138470655
0.482299137856137 0.643457229651700 0.481216814864932
0.472280384805555 0.644189369297704 0.465051942154473
0.464404103561175 0.642940878532939 0.451006421050869
0.465140096573737 0.647649692466712 0.467780125677478
0.445118003938805 0.653144593178301 0.472712434871611
0.436359301752661 0.653179273477322 0.468296476796239
0.454019280687591 0.653140739811743 0.489023735511270
0.454447004375519 0.652100330841106 0.477459782470963
0.437438244388878 0.647853920894282 0.539109794031063
0.443626751080891 0.647194995212878 0.537953784063688
0.440008439883008 0.650994414638984 0.531241219519798
0.447626545568008 0.650007952800157 0.529476377636273
0.461968775896572 0.647252795711247 0.537341098780980
0.487050338822048 0.632297880099975 0.554931717117866
0.472465346400335 0.633977947919226 0.562680837265836
0.492722494395300 0.632328707032438 0.551945358035482
0.408006230619515 0.607123836377109 0.594713873461792
0.402287834647567 0.606403256830778 0.597068280428679
0.398072251633207 0.601463240903530 0.600112440009433
0.413948121851821 0.600083735675796 0.598917896376479
0.399983521445933 0.593267130234842 0.604536104817921
0.396253462617871 0.596018433957195 0.602987051461638
0.387976431251467 0.593679440456540 0.604879054441575
0.361962353618975 0.582570184670067 0.612165770602594
0.362625132666937 0.591036030997809 0.610031005529509
0.355353829972149 0.582258061978876 0.612396972596069
0.355211255409506 0.587155690873988 0.612158063869479
0.468785381337525 0.624124889630635 0.578263851626049
0.461190395851873 0.622787771435038 0.581304157840244
0.444509172022654 0.577537687945429 0.615329384546643
0.440752139628686 0.580450833063214 0.614866980559694
0.422101845488372 0.571707544343302 0.620885939123158
0.410433851551002 0.572281695960431 0.617371668822339
0.412541643058182 0.563434366343456 0.620600789997873
0.419735878421811 0.576185156283600 0.618388957593629
0.418726296383637 0.580597260992414 0.615333237913201
0.430059047430469 0.580643501391109 0.615649213970951
0.378897899641016 0.619485436294904 0.621105581016960
0.371218140091090 0.621481480171904 0.626353866268841
0.370489853811643 0.613697679724914 0.622427285746325
0.370250945085053 0.629265280618895 0.629721708640460
0.365253128659435 0.620317763471413 0.633771596892830
0.382277302112309 0.633993361385458 0.623336680253993
0.374404874234486 0.636309234686765 0.627344181474226
0.365754066311965 0.521401843929707 0.639197137006376
0.359765934680963 0.523236046411275 0.636025816329211
0.347338827531684 0.506200312858728 0.636353352486634
0.377541514612630 0.550749083634796 0.630712023845845
0.353773949683403 0.549843542493686 0.627983840322840
0.363573060840184 0.546606714585036 0.629952910633935
0.390511946446576 0.541936434316842 0.633559661732145
0.370116077255526 0.540568489188782 0.631636831819744
0.371445488718007 0.534834679750603 0.633166618343237
0.357750623971173 0.531902267800029 0.631509670723333
0.346356219059415 0.516666056430028 0.632253370469011
0.341597311360389 0.515737395089571 0.630276593424800
0.350406107311785 0.528831134653369 0.629929790434588
0.337481915876534 0.520450062389902 0.629945203900819
0.334850066517478 0.526615448882568 0.629371052283690
0.360829463850948 0.483792986324446 0.637944792875053
0.356933710260895 0.489707903990847 0.638931254713880
0.358101280327943 0.465739964000609 0.632033728575210
0.347223226534946 0.465034797920511 0.627490609403427
0.390739295073493 0.467674354012683 0.639162456707355
0.382797506597628 0.465447108142208 0.636403446251887
0.373927056781305 0.465955752527852 0.633266805873743
0.371252820390111 0.469928573449064 0.633320753005554
0.416233168220665 0.515918503317793 0.637586429785167
0.410206502924085 0.514546704823174 0.637528629286798
0.419177140270913 0.511406211078473 0.636858143505721
0.428432926743028 0.508242597134424 0.633690676195114
0.403910101968450 0.514095860935898 0.636746395875541
0.403320536885089 0.525050982060054 0.636176097624970
0.400010495011839 0.519764163142593 0.636426566451234
0.680913210350807 0.570208584752273 0.402974206906445
0.701174211712329 0.568081526412303 0.406334342544948
0.696557878575946 0.562428637671840 0.401390473251142
0.814540255846221 0.383767297214060 0.460050272362298
0.809985576574764 0.365432979131495 0.461660979583507
0.806756455399231 0.370762185081093 0.455938730245002
0.798263635505583 0.360377362207509 0.453746164673548
0.789697601647336 0.357364029559219 0.449650036022483
0.816432258826158 0.391142640805911 0.461780433946803
0.823534013392397 0.387169819884700 0.470839698724464
0.726587164161786 0.390556929089108 0.399317362042983
0.749341293686281 0.395531625315378 0.425755309996845
0.741044995487087 0.392283237307054 0.417012021276933
0.749456894683018 0.406467479606744 0.422318107027184
0.736332328186756 0.329261427252337 0.446987359730963
0.741368678277952 0.325754863684633 0.450247307838960
0.723207761690494 0.319215700635849 0.451395611073219
0.728409806543680 0.368434751680112 0.418164177877750
0.735056863856086 0.373093471848632 0.424021295045783
0.702430409210210 0.330513771383659 0.425169598280042
0.703844594736965 0.328186337982678 0.436109305937966
0.705486128890638 0.324228930527698 0.443557863494418
0.694642755396662 0.319119366471902 0.438197830612356
0.691629422748371 0.320768607358690 0.429708864085267
0.712090799170906 0.333785279591330 0.439847071499144
0.714911463491300 0.333554077597855 0.441681273980712
0.710067781728000 0.321115410348902 0.446802398136183
0.712707337820172 0.338316838663440 0.429477662091792
0.715786177699947 0.339596156360668 0.434818428141064
0.728317325746290 0.349591789211902 0.440401956283484
0.688307820775448 0.295617683835171 0.538358387552269
0.692816259648209 0.293001247942346 0.537610834440034
0.685718358448528 0.292843259913472 0.544300278784576
0.678720644779352 0.298873778576610 0.538119478825679
0.684169305092246 0.299081860370738 0.532135200561235
0.692242108031080 0.297756302274815 0.521877538784062
0.630010238120735 0.297039576095042 0.501570297023844
0.637154379719111 0.291949278872035 0.501111746403452
0.624700299003927 0.291459901319180 0.500761090046682
0.635570646063808 0.287009262944787 0.505331182784371
0.627601884022037 0.297378672352139 0.498314202282405
0.508702405510978 0.331477113023139 0.358413876030703
0.515696265813596 0.325658529520685 0.356529579783882
0.495169382159577 0.324067089132266 0.353990211222216
0.531814898125359 0.293375024498464 0.392758932161410
0.511376641902172 0.297579047413151 0.392905360090610
0.511264894271992 0.292997394575788 0.389996068339384
0.496699168683070 0.295833472362415 0.391626042393382
0.507739063871499 0.304688508712506 0.397113236371855
0.495666466445548 0.290053422525540 0.386262156144763
0.515723239379501 0.290257650953110 0.387213937684568
0.406969675015435 0.289036133754251 0.500510621220417
0.410349077486728 0.293953029482152 0.506452512452724
0.402287834647567 0.290496559679701 0.506456365819282
0.326985345372771 0.303443871314299 0.483024043780594
0.325312984286635 0.304992924670581 0.491027486121386
0.328237689504093 0.308985012424582 0.487366787891366
0.324588551373747 0.295220787079706 0.490750043729216
0.324719565836716 0.297617581078730 0.495308576367231
0.330942752827751 0.308356913675642 0.470211599975523
0.327659684520406 0.303093214957529 0.469999664814838
0.335235403173269 0.313767040322956 0.466342819951375
0.325540332913552 0.296265049416901 0.484445936040465
0.324808193267548 0.294997291819347 0.474569757552526
0.326688636147811 0.292692978617713 0.483116524577984
0.327031585771466 0.297278484821633 0.501084772837547
0.328068141375545 0.292596644453765 0.495004160409155
0.414503006636161 0.296850761133704 0.510013023152239
0.416306382185266 0.299058740171390 0.507007397237064
0.425338673397021 0.298234119727996 0.499994270101657
0.425488954692780 0.303802234404185 0.505007499993506
0.420976662453460 0.298762030946431 0.502949802251578
0.428066856920026 0.312630297188371 0.512143934858766
0.424097889365372 0.308742250331434 0.511654557305911
0.420356270437636 0.300892942652958 0.509388777769856
0.435480734177456 0.300164656373512 0.502391064100681
0.438058636404702 0.305698090750680 0.508298275033966
0.433843053390342 0.309663204938775 0.540392965094849
0.430305662890175 0.297209124223591 0.540824542149336
0.430012807031773 0.312653417387718 0.537657074838729
0.723662458944328 0.313612905660639 0.573065660139420
0.710699733843498 0.309986887729640 0.578522027185429
0.716052059992443 0.306183614936977 0.566268321531256
0.715393134311040 0.300819728688358 0.554742902156529
0.703424577782152 0.296218809018206 0.552326841324715
0.702495916441695 0.293197769636800 0.538046264861078
0.696923948398948 0.294084043945121 0.551691035842659
0.695101306017054 0.292646738219018 0.541121251374295
0.687891657187193 0.293267130234842 0.552319134591599
0.647354240997915 0.293348050932559 0.534458780595658
0.643789876931843 0.293178502804010 0.523183830047196
0.653350079362033 0.294673609028482 0.520979704376068
0.636938591191868 0.289691206069096 0.518236107386832
0.648857053955503 0.288689330764038 0.513500319887153
0.657658143173783 0.296045407523100 0.516613840065949
0.655145748178022 0.292161214032721 0.535907646421435
0.655427043936750 0.292642884852460 0.542292674807902
0.660101177571502 0.293340344199443 0.536982735691093
0.659045355134633 0.298785151145778 0.543279136646728
0.659130129198907 0.298041451400101 0.540812982049662
0.662054834416365 0.292565817521302 0.547178743603339
0.657839251402005 0.291355860422116 0.548581369030421
0.658082013495154 0.292758485849198 0.546072827401217
0.667534321661722 0.292018639470078 0.552450149054569
0.663623154605437 0.297355552152791 0.545988053336943
0.672115974499084 0.294800770124893 0.618123075301133
0.665064313698098 0.293991563147731 0.624207541096082
0.664131798991082 0.293089875373178 0.614866980559694
0.590648098731622 0.307971577019850 0.618566212455293
0.595218191469310 0.302476676308262 0.614920927691504
0.586775465340916 0.302029685787544 0.617760858844689
0.616847137958893 0.302468969575146 0.608485805539784
0.605506680178946 0.300087589042354 0.609194824986441
0.609706849727075 0.302492089774494 0.611984662374372
0.610546883636701 0.295925953159805 0.645262335968536
0.590840767059518 0.293791188086719 0.646318158405405
0.600254541560507 0.293035928241367 0.642260563419919
0.625390051617793 0.299397836428487 0.643304825757114
0.619663948912730 0.295440428973507 0.642873248702628
0.639073356264954 0.308688303199623 0.641274101581093
0.617995441193153 0.302079779552797 0.644784518515354
0.615124683107505 0.298989379573348 0.645370230232157
0.616666029730671 0.293186209537126 0.638434170427908
0.625798508472933 0.292662151685250 0.634210880680432
0.620804545413873 0.291980105804498 0.625190149568351
0.649631580633644 0.292219014531089 0.624473423388578
0.657677410006573 0.293020514775136 0.623822204440291
0.654213233471006 0.292188187598626 0.604921441473712
0.648379236502321 0.292141947199931 0.607861560157402
0.640387354261203 0.292338468894385 0.609364373114989
0.643786023565285 0.293382731231580 0.603946539734559
0.569805239019854 0.307505319666342 0.615564439906676
0.571065289884292 0.299528850891456 0.611314176593295
0.565674430069768 0.304549787516421 0.613059751644031
0.576729738724429 0.306746206454433 0.615992163594605
0.580752653410893 0.307555413431595 0.618184729166059
0.576194120772879 0.311154457796689 0.615121302752516
0.582001144175658 0.311697782481355 0.618412077792976
0.583265048406655 0.310919402436656 0.621564131637352
0.591819522165228 0.311559061285270 0.617938113706353
0.589407314699973 0.310927109169772 0.621348343110108
0.625089489026276 0.302330248379061 0.606374160666046
0.622893070088264 0.300565406495536 0.602894570664248
0.709717125371229 0.385578379496281 0.633147351510448
0.715161932317565 0.392333331072307 0.630130165495599
0.736528849881210 0.405916448188962 0.619175044371444
0.731195790565054 0.391065573474753 0.620003518181396
0.739657783526237 0.397755017819295 0.614446963604881
0.716953747766996 0.414910205735138 0.630754410877982
0.717458538786083 0.406459772873628 0.630785237810445
0.733681211994910 0.431811071458158 0.620658590496242
0.731272857896212 0.443455945196180 0.623174838858561
0.738436266327378 0.428416255520634 0.615988310228047
0.731812329214320 0.418320435138894 0.621043927152033
0.727677666897676 0.427422086948691 0.624253781494777
0.722352314314636 0.418524663566463 0.627251700676836
0.725862731248898 0.400698989869543 0.624111206932134
0.719909279916918 0.398479450732184 0.627294087708973
0.805735313261383 0.386356759540980 0.580895700985105
0.795882254972791 0.387389461778501 0.585276978761456
0.797042118306724 0.371818007517962 0.583219281019529
0.752605095160836 0.389462572986660 0.590794999672392
0.762427326516964 0.387000271756152 0.584394557819693
0.763394521523001 0.391890193918147 0.581797388759658
0.757071147001460 0.385370297702153 0.584837694973853
0.757048026802113 0.393924771460727 0.585974438108439
0.755999911098360 0.374858313732158 0.588024429117250
0.768904835700821 0.382603580513569 0.588436739338947
0.761880148465740 0.371278536199854 0.590336449052000
0.734586753136020 0.383301039860552 0.614007679817278
0.729165066389032 0.378923615450759 0.616604848877314
0.752200491672254 0.380611390003127 0.588425179239273
0.752516467730004 0.377705951618458 0.587581291963090
0.702692438136148 0.306692259322622 0.581346544872381
0.710930935836973 0.313801720621977 0.583966834131764
0.716745665972868 0.319177166970270 0.583650858074015
0.724722134747755 0.321932324059180 0.579130859101580
0.738736828918896 0.368430898313554 0.597788859975009
0.740917834390676 0.381524637877353 0.605349165161641
0.735411373579414 0.375598160111278 0.607865413523960
0.745449393462785 0.380098892250924 0.596586609608940
0.743372428888069 0.374835193532810 0.596008604625252
0.743981260804219 0.364388716794300 0.589303746814478
0.738779215951033 0.359186671941113 0.591561819617417
0.698665670083126 0.310992616401257 0.601850308327053
0.699390102996014 0.308645916167486 0.593010685443193
0.705967799710377 0.314903783457541 0.592305519363095
0.694954878087853 0.302707878301737 0.586802911918391
0.689737419768435 0.306769326653780 0.615649213970951
0.685991947474140 0.312811405416593 0.627024352049919
0.678909459740690 0.305817545113975 0.628843141065255
0.674050364511158 0.299332329197002 0.627479049303753
0.681464241768589 0.302599984038115 0.623417600951709
0.683972783397792 0.301166531678570 0.616049964092974
0.689506217774959 0.303898568568133 0.609884577600308
0.678354574956350 0.298076131699122 0.618943842377969
0.674651489694193 0.297544367114129 0.623625682745837
0.679599212354557 0.295367215008907 0.603145039490513
0.677456740548356 0.295760258397814 0.611765020480571
0.674031097678368 0.293598519758823 0.605499446457400
0.669256776513110 0.292997394575788 0.600081613076970
0.678273654258634 0.354539511872266 0.639208697106050
0.680909356984249 0.359348513336546 0.643297119023999
0.609232885640451 0.401003405827619 0.335887095133126
0.616639056164766 0.396286885160729 0.340592055700341
0.610519910070795 0.392525999400203 0.338819507083700
0.615448365898370 0.385112122142773 0.341994681127423
0.609618222296243 0.380048798485671 0.342464791847489
0.614007206805709 0.374866020465274 0.344892412778976
0.623837144894953 0.377867793013890 0.348495310510627
0.621174468603433 0.367344248944222 0.350749529947008
0.772064596278312 0.415985295004796 0.465013408488894
0.772087716477659 0.409977896541005 0.463899785553657
0.766908791823820 0.405696806295160 0.456971432482523
0.768827768369662 0.400949458695808 0.457919360655771
0.791920994151254 0.437271291870725 0.496295038206057
0.799577633501833 0.437410013066810 0.495127468139009
0.790341113862508 0.432281182178224 0.484958433792668
0.786830696928246 0.435872519810201 0.488499677659393
0.787173646551901 0.441552382116570 0.504321600746196
0.784063979739663 0.435606637517705 0.484442082673907
0.778881201719265 0.445374921742023 0.474091940099345
0.781304969284195 0.435306074926188 0.479582987444375
0.775093342392834 0.424616836094529 0.470358027904724
0.783651669517966 0.447105083326527 0.492761501072448
0.785266230105732 0.446238075850996 0.510756722897916
0.784672811655813 0.442245988096995 0.492522592345857
0.769259345424149 0.438215366677414 0.448663574183656
0.766122705046005 0.440754735239081 0.441137949296046
0.755441172947462 0.419811687996807 0.424514525965196
0.754281309613529 0.407650463140024 0.429065351870095
0.759980438752687 0.397342707597598 0.449187632035533
0.761421597845348 0.392414251770024 0.451935082391327
0.756392954487267 0.389150450295469 0.446921852499478
0.755653108108147 0.382399352086000 0.447661698878598
0.753021258749091 0.384680545088286 0.443538596661628
0.758970856714513 0.408613804779503 0.436933926381360
0.759880251222181 0.420721082504475 0.432953398727032
0.757776313081559 0.373324673842107 0.444243762741727
0.750528130586119 0.375166583056791 0.444663779696539
0.766866404791683 0.389466426353218 0.451580572667999
0.762523660680912 0.380299267311935 0.447210854991322
0.763282773892821 0.399469765937568 0.453210546721997
0.766061051181079 0.399296364442462 0.455992677376813
0.766269132975206 0.417172131904635 0.452906130763922
0.762828076638987 0.409527052653729 0.447630871946135
0.639998164238853 0.391477883696450 0.351080919470989
0.643601061970505 0.376253232426124 0.351011558872947
0.633767270514703 0.377197307232813 0.348795873102145
0.687783762923571 0.360658657966237 0.369604052514892
0.680273551502192 0.361621999605716 0.364829731349634
0.693563812760445 0.369340292821222 0.369719653511629
0.666524739623548 0.357614498385483 0.364494488459095
0.648729892859091 0.365891529751887 0.353947824190079
0.659288117227781 0.369999218502626 0.356406272054029
0.644283107851256 0.353757278461009 0.357180798732170
0.660363206497440 0.362200004589404 0.360286612177851
0.678050158998275 0.368542645943733 0.360344412676219
0.672747926614582 0.366943498822198 0.359627686496447
0.667106597973793 0.379224178042277 0.356645180780620
0.671287500689132 0.373644503266414 0.357708709950605
0.627925566812902 0.393708982933483 0.347504995305243
0.625964203234923 0.386792189962024 0.348256401784036
0.642737907861532 0.401747105573297 0.346926990321555
0.677911437802190 0.342517008211568 0.381148738722408
0.672643885717519 0.329696857673381 0.378015951710823
0.684165451725688 0.341360998244193 0.385676444427960
0.647978486380298 0.309466683244322 0.378593956694510
0.658236148157470 0.310564892713328 0.381225806053567
0.642240823575561 0.300615500260788 0.378023658443938
0.664659710209516 0.321038343017744 0.378212473405276
0.655924128222721 0.315736110634051 0.378173939739697
0.636117824115032 0.315007824354605 0.376728927280479
0.658609924713588 0.328621768403723 0.372837027056983
0.655519524734139 0.323304122553798 0.374201118818486
0.630187492982399 0.320653006361952 0.374713616570688
0.827838223837590 0.394549016843109 0.476639015394127
0.828362281689466 0.385455071766427 0.479012689193804
0.772469199766893 0.483681238694266 0.571104296561440
0.766242159409301 0.487734980313194 0.581647107463899
0.766161238711584 0.473516057714484 0.582510261572872
0.769452013752045 0.475357966929168 0.576672411237629
0.764862654181567 0.441922305306130 0.583504430144814
0.762681648709786 0.430389179198287 0.585076603700444
0.766192065644048 0.431398761236461 0.579204073066180
0.757329322560841 0.406247837712942 0.592405706893601
0.756805264708964 0.415160674561402 0.595827496397030
0.788930781702311 0.401300115052578 0.582171165315775
0.779863810191534 0.399442792371663 0.581832069058679
0.776122191263798 0.415854280541827 0.567906002318370
0.783424320891049 0.419380110942321 0.566615124521468
0.730902934706652 0.452946787028328 0.627417395438826
0.726332841968964 0.454491987018052 0.632203276703758
0.737114561598013 0.462522402924749 0.622893543099833
0.720433337768794 0.444650488829134 0.633000923581247
0.715346893912345 0.449209021467149 0.637586429785167
0.698164732430597 0.428235147292412 0.643875124007686
0.695818032196826 0.420150784253904 0.642449378381257
0.689775953434014 0.411681084559604 0.646449172868374
0.704098916929788 0.427645582209051 0.636946770936553
0.703073921425382 0.431475828567619 0.639347418302135
0.705771278015923 0.443078315273505 0.640222132510782
0.717874702374338 0.495399326396889 0.634627044268687
0.720610592630458 0.484232270112049 0.632908442783857
0.716221608120992 0.487268722959686 0.635790760969178
0.718059663969118 0.480274862657069 0.634738791898867
0.743017919164740 0.442569670887860 0.614759086296072
0.739619249860658 0.449686838920331 0.618119221934575
0.746289427372411 0.433074975689154 0.608081202051203
0.688481222270554 0.393577968470514 0.650684022715524
0.697794809241037 0.402587139482922 0.641886786863801
0.691513821751634 0.397947686147191 0.647562795803612
0.695532883071540 0.390799691182257 0.643655482113885
0.757595204853337 0.501364337828544 0.594158988677452
0.756539382416468 0.520207300296753 0.590621598177285
0.754204242282371 0.514774053450092 0.597210854991322
0.759980438752687 0.514716252951723 0.585327072526709
0.833240643751788 0.421776904941344 0.540493152625355
0.827803543538568 0.431445001635156 0.537491380076738
0.822832700678856 0.436674020054248 0.534343179598921
0.825252614877228 0.436724113819501 0.511662264039027
0.824339367003002 0.435602784151147 0.503481566836571
0.820158464287663 0.436358043996499 0.497982812758424
0.818015992481461 0.440388665416079 0.528759651456500
0.825892273725842 0.436716407086385 0.525480436515714
